# .PCD v0.7 - Point Cloud Data file format
VERSION 0.7
FIELDS x y z normal_x normal_y normal_z curvature
SIZE 4 4 4 4 4 4 4
TYPE F F F F F F F
COUNT 1 1 1 1 1 1 1
WIDTH 595
HEIGHT 1
VIEWPOINT 0 0 0 1 0 0 0
POINTS 595
DATA ascii
2.4223447 -0.36079797 1.2388842 -0.48066208 -0.38725615 -0.78676349 0
2.3904946 -0.3193402 1.2400317 -0.52266461 -0.2845059 -0.80366534 0
2.4136434 -0.33783799 1.2350171 -0.25711331 -0.20827828 -0.94366992 0
2.3735745 -0.273783 1.2430022 -0.47597128 -0.090344846 -0.87480807 0
2.3649747 -0.21890923 1.2433546 -0.35403317 -0.080524452 -0.93175983 0
2.3651853 -0.18772943 1.2409708 -0.38711864 -0.0045856703 -0.92201847 0
2.3583953 -0.13086291 1.2461442 -0.51462388 0.077300437 -0.85392445 0
2.3706779 -0.074612699 1.2457604 -0.44677585 0.095485345 -0.88953573 0
2.3755896 -0.025031533 1.2471688 -0.48203072 0.034239113 -0.87548506 0
2.3901596 0.028003508 1.2436986 -0.46516114 0.096016489 -0.88000339 0
2.3960609 0.059687685 1.2462488 -0.48762378 0.26359585 -0.83231026 0
2.4185824 0.079451427 1.2375515 -0.41023192 0.040038489 -0.91110188 0
2.4228854 0.1142405 1.241048 -0.64200765 0.16187647 -0.74941456 0
2.4500828 0.14623559 1.2438211 0.92236054 0.020847226 0.38576743 0
2.4394493 0.16962138 1.2428831 -0.57390147 0.40331224 -0.71272457 0
2.4589474 0.1771121 1.2392279 0.46469468 -0.16452898 -0.87005121 0
2.4766912 0.22562733 1.244387 -0.093562581 0.0089845313 -0.99557281 0
2.4918284 0.27303448 1.2455755 -0.51857096 0.35156271 -0.77941507 0
2.5163198 0.28571033 1.2440617 0.5022251 -0.25034091 -0.82770723 0
2.5259054 0.31727988 1.2449001 -0.084837094 0.33059734 -0.93995112 0
2.5527844 0.34692445 1.2449496 0.51471609 -0.17756425 -0.83877194 0
2.5418038 0.37993503 1.2493106 -0.30465779 0.033437345 -0.95187473 0
2.5748971 0.37351248 1.241984 -0.25628108 -0.10889734 -0.9604485 0
2.6029229 0.39351499 1.2490915 0.40817502 0.0097273057 0.91285187 0
2.5737815 0.41732815 1.2422142 -0.35385829 0.19864447 -0.91396099 0
2.6260011 0.41467312 1.2439666 0.64287078 -0.65288848 0.40056673 0
2.618156 0.51437116 1.2465119 0.63012475 -0.63010597 0.4537724 0
2.5944421 0.56536394 1.241896 -0.68728614 0.23499155 -0.68732578 0
2.5972753 0.69439638 1.2495807 -0.27589715 -0.0029447516 -0.96118265 0
2.6135416 0.69656646 1.2411805 -0.1973155 0.013742062 -0.98024374 0
2.5971084 0.73173028 1.2499028 -0.076948963 0.002436555 -0.99703205 0
2.6038516 0.72506714 1.2480228 -0.32455006 0.20132278 -0.92419499 0
2.5975256 0.78947729 1.2478318 0.43700191 -0.29572728 -0.84945554 0
2.6096058 0.78979206 1.249743 -0.094455123 0.078248538 -0.99244922 0
2.4745245 -0.40694895 1.2740949 -0.24937449 -0.96333396 0.098994806 0
2.5232012 -0.41452786 1.2789235 -0.19627698 -0.97936338 0.048195194 0
2.5552316 -0.42263034 1.2878015 -0.33514345 -0.94178492 0.02683167 0
2.3996966 -0.35264915 1.2853554 -0.81700617 -0.57660973 -0.0047156275 0
2.4273789 -0.38333946 1.2756008 -0.63727993 -0.77041239 0.018411629 0
2.4510872 -0.39934421 1.2837074 -0.34054029 -0.93989241 0.025189558 0
2.3823588 -0.32587403 1.2737852 -0.86402094 -0.50330055 0.01250093 0
2.3612442 -0.27933738 1.2724262 -0.91749901 -0.31453958 -0.24343477 0
2.3458624 -0.22157648 1.2748759 -0.98305738 -0.12285718 -0.13603039 0
2.3514462 -0.23341392 1.2606202 -0.76628947 -0.21493626 -0.60547733 0
2.3437576 -0.17763349 1.2710509 -0.98724353 -0.027482014 -0.15682763 0
2.3453727 -0.12767996 1.2770766 -0.98544443 0.10760469 -0.13160768 0
2.3529243 -0.11116385 1.2511244 -0.63423544 0.021917775 -0.77282929 0
2.3491294 -0.092923373 1.2764772 -0.9916904 0.10256431 0.077658094 0
2.3549201 -0.068556406 1.2741889 -0.94062155 0.206095 -0.26973325 0
2.3634968 -0.028547307 1.2731478 -0.94860846 0.19908771 -0.24597991 0
2.3748481 0.018929377 1.2762258 -0.95022494 0.29531676 -0.099299893 0
2.3920417 0.069509052 1.2737523 -0.9318679 0.36278889 -0.0025227161 0
2.4188097 0.085927263 1.2835244 0.93335104 -0.31013343 -0.1807569 0
2.4244416 0.12382389 1.2753816 -0.92105263 -0.36913687 0.12409684 0
2.4338791 0.1692165 1.2784913 -0.87398803 0.48364714 0.047227837 0
2.4608753 0.17826787 1.2767352 0.91110688 -0.41006386 0.041615956 0
2.5216784 0.18332207 1.2912384 -0.68625224 0.61782688 -0.38385904 0
2.4490938 0.20592579 1.2649301 -0.92893052 0.3646799 -0.064005367 0
2.4703426 0.22615264 1.2724622 -0.99386519 0.10768639 -0.025211213 0
2.5566936 0.22703987 1.2981082 -0.94531417 0.2931726 0.14293686 0
2.4839935 0.27405745 1.2685055 -0.87261885 0.43689862 -0.21830243 0
2.5149419 0.2881048 1.2694634 0.89648324 -0.38580796 0.21787636 0
2.4954789 0.31604993 1.2761538 -0.9470163 0.30991143 -0.084351622 0
2.5169678 0.32636172 1.2734264 0.72129869 -0.27748898 -0.63460863 0
2.5223982 0.37236044 1.2760848 -0.97366226 0.20426746 -0.10127528 0
2.5702417 0.37658656 1.2691827 0.64691359 -0.53449708 0.54388946 0
2.6034293 0.38608205 1.2509805 0.098401509 0.33119673 0.93841672 0
2.5340378 0.42377502 1.2655137 -0.84028304 0.24045241 -0.48590848 0
2.5691245 0.42624509 1.2798434 0.92018253 -0.12725925 0.37022853 0
2.6263664 0.43613291 1.2714396 0.48716405 -0.66731912 0.56334394 0
2.5448987 0.47914413 1.2782928 -0.95677209 0.27942941 -0.08066228 0
2.5705829 0.47416967 1.271741 0.84843379 -0.31513897 -0.42526174 0
2.6289449 0.45374256 1.2726614 0.90944564 0.28554434 0.30227965 0
2.5694904 0.52081388 1.2722628 -0.60144824 -0.15213656 -0.78429234 0
2.6087773 0.52599937 1.2640485 0.83788055 -0.54385358 0.046685841 0
2.56671 0.57838577 1.2678633 -0.93178093 0.097582608 -0.34965974 0
2.5723312 0.62266409 1.2671537 -0.87834823 0.078006737 -0.4716135 0
2.5758033 0.67824692 1.267629 -0.89103293 0.087986819 -0.44532973 0
2.5798821 0.72470778 1.272755 -0.94291949 0.092425585 -0.31993797 0
2.5840511 0.77205825 1.2719688 -0.94635373 0.14281107 -0.28986129 0
2.6097264 0.7894811 1.2501433 -0.23262978 0.21715139 -0.94801301 0
2.5912156 0.81435567 1.2818835 -0.94255286 0.10019323 0.31867754 0
2.6005487 0.84295189 1.2938088 -0.84379065 0.28373632 0.45553392 0
2.6105082 0.87609845 1.2953006 -0.159097 -0.48772863 0.85837573 0
2.4750974 -0.40683711 1.326521 -0.21740608 -0.9759391 -0.016656404 0
2.5205231 -0.41466251 1.3245615 -0.18819413 -0.98148668 -0.035593733 0
2.5565019 -0.42281559 1.3316771 -0.28125566 -0.95949173 0.016456278 0
2.3976979 -0.35129589 1.3332088 -0.81955975 -0.57111979 -0.046303451 0
2.4261746 -0.38241905 1.3198596 -0.62781304 -0.77836102 -0.0022341644 0
2.3812137 -0.32045555 1.3216708 -0.88249141 -0.46984628 0.021290312 0
2.3490343 -0.25391909 1.3350749 -0.93070251 -0.30360037 0.20400921 0
2.3578038 -0.27350476 1.3234566 -0.95179671 -0.30576065 0.024361707 0
2.3440738 -0.22073069 1.3261805 -0.98999041 -0.12736839 -0.060797576 0
2.3411696 -0.17953858 1.3286713 -0.99586791 -0.025615919 -0.087126337 0
2.3432577 -0.12261623 1.3250351 -0.99073952 0.087031417 -0.10421513 0
2.3484137 -0.084145136 1.320686 -0.98757672 0.12441482 -0.095984861 0
2.3518164 -0.064180151 1.3192714 -0.98157722 0.17024913 -0.086726189 0
2.362196 -0.021120638 1.3245033 -0.96007669 0.27843955 -0.026911067 0
2.3770156 0.026924107 1.3255002 -0.95296037 0.3029061 -0.010691562 0
2.4112072 0.047093384 1.3081505 0.77080709 -0.63359958 -0.066393264 0
2.3921769 0.073938429 1.327549 -0.94654101 0.31416422 -0.073218837 0
2.4191978 0.082638443 1.317436 0.96314985 -0.2662482 -0.038136248 0
2.4293063 0.13171248 1.3245745 0.91139185 -0.39668906 -0.10955723 0
2.4310961 0.16777484 1.3315325 -0.88793421 0.44239575 -0.12593189 0
2.4621029 0.1816822 1.3240298 0.91691327 -0.3859123 -0.10169473 0
2.5237684 0.18895106 1.3127444 -0.73645622 0.41710916 0.53258997 0
2.5519681 0.18313983 1.3419404 -0.97540122 0.055551548 -0.21332242 0
2.4450917 0.204044 1.3445692 -0.82948846 0.47385165 -0.29565796 0
2.4697158 0.22356237 1.3256515 0.63712901 0.19398236 0.74594736 0
2.5471997 0.20741358 1.3109134 -0.73711103 0.61570376 0.27852526 0
2.5577946 0.22871983 1.3281691 -0.98248428 0.18624403 0.006149461 0
2.4830856 0.26759928 1.3192315 -0.86281621 0.29476419 0.41068509 0
2.5086117 0.27963322 1.3151693 0.89605957 -0.42534271 0.12712499 0
2.5674222 0.2703703 1.3222883 -0.86538631 0.21830408 -0.4510541 0
2.4936123 0.31452388 1.3151401 -0.94459611 0.32638133 0.034835417 0
2.5223532 0.32350489 1.319875 0.6277976 -0.41808832 0.65656102 0
2.5723984 0.32253426 1.3240232 -0.69047177 0.0077444301 -0.7233178 0
2.6003098 0.33955657 1.3334661 0.9842819 -0.17098102 -0.044212084 0
2.5272989 0.36828339 1.3167593 -0.71563363 0.15189826 0.68175894 0
2.5700283 0.37991133 1.3221956 -0.52887154 -0.131347 -0.83847654 0
2.602484 0.35808688 1.3308041 0.98455828 -0.14405771 -0.099460348 0
2.5367358 0.4229503 1.3222771 -0.77434027 0.24640825 0.58282089 0
2.5696268 0.41708606 1.323333 -0.9294768 -0.36196378 0.071099386 0
2.6073575 0.40839872 1.3075155 -0.032741625 -0.669415 -0.74216676 0
2.5440679 0.46247351 1.3140748 -0.91898274 0.27992538 0.27769122 0
2.5681763 0.47597983 1.3221773 -0.99806267 -0.029210545 0.054932058 0
2.5608227 0.52256113 1.3232917 -0.98386437 0.11561713 0.13654158 0
2.5681458 0.57128853 1.3276855 -0.97824043 0.14006653 0.15305859 0
2.5714695 0.62552005 1.3248141 -0.98008513 0.068152465 0.18651649 0
2.5771642 0.67702377 1.3304944 -0.97982401 0.090755716 0.17806841 0
2.5807288 0.71898359 1.3279709 -0.99100327 0.08596196 0.1025824 0
2.5849171 0.77354187 1.3276647 -0.9931528 0.11651354 0.0084880562 0
2.5924954 0.81995255 1.329488 -0.94790357 0.15620263 -0.27763188 0
2.6022198 0.83647877 1.3077756 -0.97338736 0.20290278 0.10652522 0
2.6105127 0.87152076 1.3106815 -0.69673544 0.018614927 -0.71708661 0
2.476222 -0.40762627 1.3722235 -0.2302779 -0.97300082 -0.015542599 0
2.5219398 -0.41631743 1.3735387 -0.17424007 -0.98468196 -0.0064607384 0
2.5580599 -0.42305997 1.3825098 -0.27492622 -0.96139717 -0.01144413 0
2.3958695 -0.35261464 1.3783644 -0.81049895 -0.58191121 -0.066864178 0
2.423218 -0.38040286 1.374162 -0.65673041 -0.75378513 -0.022651436 0
2.450036 -0.39972147 1.3811928 -0.34887928 -0.93716723 -0.00096078473 0
2.3814876 -0.32837722 1.3779088 -0.86942142 -0.48715565 -0.082375579 0
2.3479805 -0.25468877 1.391541 -0.96353346 -0.247575 -0.10153775 0
2.357012 -0.27611539 1.3709306 -0.92303914 -0.382103 -0.044676453 0
2.3429053 -0.22773027 1.3753014 -0.98551023 -0.16357793 -0.044853907 0
2.339124 -0.17498088 1.3706787 -0.99986684 0.008917206 -0.013666372 0
2.3417861 -0.12278478 1.3729711 -0.99743217 0.071177363 0.0079294732 0
2.3471398 -0.080772497 1.3768317 -0.98818427 0.15291022 0.010497674 0
2.3515999 -0.056970078 1.3623018 -0.97551042 0.20527698 -0.078998543 0
2.3602588 -0.024584297 1.3744891 -0.96249032 0.27056584 -0.020162325 0
2.3754842 0.02556519 1.3747147 -0.94726068 0.31900787 -0.030514801 0
2.4166338 0.049067616 1.3506635 0.66118902 -0.66116893 -0.35452062 0
2.3919158 0.075479344 1.3750226 -0.94997913 0.31151202 0.022361105 0
2.4231408 0.0772551 1.3692372 0.96122986 -0.27544299 -0.012976909 0
2.4256725 0.12684543 1.3762239 -0.68883508 0.50114042 -0.52379823 0
2.4321263 0.17299189 1.3716027 -0.92710298 0.37331235 -0.033436827 0
2.4668913 0.18256126 1.3738167 0.85679209 -0.51246655 0.057318721 0
2.5449274 0.18042509 1.3708071 -0.95920885 0.21733858 -0.18078265 0
2.5508184 0.19566968 1.3656465 -0.92330563 0.37670431 -0.074837089 0
2.4448495 0.20618773 1.3713809 -0.50633997 0.86215818 0.017407281 0
2.4631186 0.20949215 1.3713837 0.072136544 0.94916975 0.3063871 0
2.5585446 0.23096073 1.3676405 -0.99385482 0.10815303 0.023571711 0
2.5622897 0.26900074 1.3760544 -0.9962796 0.083939135 0.019523531 0
2.5749679 0.32456347 1.3717748 -0.99349344 0.10609524 0.041407667 0
2.6004329 0.34107488 1.3760017 0.98381066 -0.17480101 0.039511964 0
2.5698035 0.37139803 1.3763716 -0.99811089 0.05742617 0.02183619 0
2.6209633 0.37863302 1.3913549 0.62162101 -0.44164342 -0.64694548 0
2.5723865 0.42968622 1.3776492 -0.9987936 0.035207152 0.034231611 0
2.5729375 0.47500303 1.3715403 -0.99687427 -0.012024125 0.07808394 0
2.5659323 0.52406716 1.3733248 -0.99214476 -0.11690918 0.044507675 0
2.5742185 0.57559419 1.3755021 -0.97351766 0.21879578 0.066270158 0
2.5797834 0.62510288 1.378616 -0.99772012 0.053514618 0.041119017 0
2.581738 0.6737082 1.380888 -0.99990654 0.013465966 0.0023854203 0
2.5827227 0.72801346 1.3769401 -0.99957865 0.017373055 -0.023253178 0
2.5837035 0.7805438 1.3773445 -0.99618924 0.071656995 -0.049723387 0
2.5931001 0.82190531 1.3741615 -0.90746844 0.40921402 0.095104545 0
2.6086736 0.84007108 1.3796762 -0.54395026 0.40624067 0.73422509 0
2.5972619 0.85676843 1.3680389 -0.89607036 -0.19841334 0.39710203 0
2.6201174 0.87468231 1.3875775 0.79452091 -0.60043675 0.090621158 0
2.6365387 0.90153873 1.3863187 0.62015784 -0.7844252 0.0090237986 0
2.4726739 -0.4076263 1.4239225 -0.24963881 -0.9680931 -0.021822667 0
2.5284255 -0.41798267 1.4284608 -0.15725562 -0.98737943 -0.018775988 0
2.5578041 -0.42327619 1.4133898 -0.29031816 -0.95643657 -0.030733384 0
2.3949223 -0.35358027 1.4304308 -0.79917175 -0.59982431 -0.039180875 0
2.4188759 -0.37834296 1.4237611 -0.66716623 -0.74441952 -0.026996497 0
2.3750653 -0.32290989 1.4306234 -0.85806775 -0.51270097 -0.02927948 0
2.3459291 -0.25329843 1.4264741 -0.95145601 -0.30557781 -0.036790743 0
2.3560462 -0.28374526 1.4176346 -0.93602598 -0.34873816 -0.047297094 0
2.3404443 -0.2209505 1.4287422 -0.9930774 -0.11740021 -0.0037964245 0
2.3381286 -0.17943297 1.4300563 -0.99941099 -0.0056331693 0.033851448 0
2.341212 -0.12396131 1.4239019 -0.99481022 0.094797097 0.036961656 0
2.3464718 -0.082181118 1.4260173 -0.98614019 0.1640458 0.024828773 0
2.3513496 -0.059773881 1.4317031 -0.96867853 0.24017763 0.063060351 0
2.3600547 -0.024042426 1.4241235 -0.9605276 0.27543113 0.039043345 0
2.3755088 0.024299689 1.4279758 -0.94768602 0.30476859 0.094907001 0
2.3933852 0.07787998 1.4241942 -0.93810743 0.34164235 0.056876548 0
2.4244478 0.076154441 1.4201609 0.96385628 -0.26487577 -0.028668942 0
2.4266651 0.12589487 1.4241878 -0.92269224 -0.064480744 0.38010693 0
2.4292095 0.17396519 1.4266336 -0.95775652 0.28663924 -0.023245661 0
2.4592941 0.17421168 1.4190575 0.92117989 -0.38902083 0.0095038135 0
2.5416844 0.17289542 1.4235803 -0.7835921 0.60766292 0.12934124 0
2.5508759 0.18615636 1.4269736 -0.97463036 0.17513111 0.13937265 0
2.4432793 0.20498137 1.4197057 -0.68117404 0.73210275 0.0052443151 0
2.4639251 0.20566753 1.4285312 0.66368282 0.74799973 0.0046339678 0
2.5585907 0.22607492 1.4217848 -0.98593467 0.16550085 0.023284698 0
2.5634174 0.27139339 1.4236147 -0.99628133 0.085648336 0.0093792928 0
2.5741477 0.32206723 1.4227294 -0.99675095 0.080365904 0.0053774845 0
2.6006844 0.33633041 1.422124 0.9939968 -0.10491227 -0.031045543 0
2.5708082 0.37780911 1.4264284 -0.99827588 0.056220226 0.016865665 0
2.6123514 0.36192214 1.414312 0.84780526 -0.48802087 -0.20751375 0
2.5730634 0.42917693 1.4229922 -0.99947298 0.023626823 0.022259258 0
2.5738137 0.47782969 1.4188915 -0.9999364 -0.0092374189 0.0064723622 0
2.5671618 0.5221082 1.421802 -0.98131222 -0.19223014 0.0085979318 0
2.5755916 0.57661861 1.421551 -0.98101902 0.1929961 0.018822277 0
2.5800107 0.62493163 1.4310979 -0.99920207 0.037612498 0.013433684 0
2.5815973 0.67341644 1.4261259 -0.99965638 0.025190722 0.0072503416 0
2.582756 0.7239489 1.4244707 -0.99955982 0.026507204 0.013321696 0
2.584003 0.77807921 1.4268789 -0.99841213 0.051766317 0.022213424 0
2.5923965 0.81429029 1.4148337 -0.84407192 0.53310156 0.057839204 0
2.6115973 0.83056039 1.4245428 -0.56358159 0.82171237 0.084644355 0
2.625596 0.88729113 1.4290987 0.42075601 -0.90689611 0.022446932 0
2.6158943 0.90421438 1.4177459 -0.70338976 -0.51200187 -0.49304861 0
2.4724472 -0.40973544 1.4745278 -0.26656964 -0.96326941 -0.032443125 0
2.5220358 -0.41744381 1.4729091 -0.11979448 -0.99278307 -0.0055764243 0
2.5553293 -0.42319727 1.4754502 -0.27096614 -0.96240401 -0.018862166 0
2.3945897 -0.35499749 1.4897321 -0.77317798 -0.63418853 -0.00083864341 0
2.4187782 -0.37926474 1.4788928 -0.66864455 -0.74344051 -0.014518916 0
2.375159 -0.32572022 1.4787234 -0.85720372 -0.51444614 -0.023384541 0
2.3466992 -0.25879821 1.4633915 -0.9654811 -0.25927258 -0.024980804 0
2.354645 -0.28478792 1.4723694 -0.94060796 -0.3377572 -0.034303449 0
2.3416071 -0.23100716 1.4740666 -0.99132669 -0.13122553 -0.0071529979 0
2.3387983 -0.1773333 1.4801559 -0.99951679 0.029922653 0.008419591 0
2.3429973 -0.12358999 1.4740343 -0.99242663 0.11883893 0.031092195 0
2.3480923 -0.089295007 1.47486 -0.98204041 0.18328838 0.0447447 0
2.3541579 -0.062469058 1.4771345 -0.97399747 0.22062758 0.051502362 0
2.3637302 -0.025326662 1.4752961 -0.95870268 0.27636048 0.067187861 0
2.3794549 0.02412004 1.4792808 -0.94730568 0.31990373 0.016537139 0
2.3931186 0.065509111 1.4767792 -0.94569683 0.3235403 0.031291179 0
2.4169066 0.089044757 1.4731758 0.37255248 -0.90956646 -0.18410175 0
2.4319201 0.12258379 1.4793166 0.99077028 -0.11870219 -0.065453306 0
2.451015 0.14766565 1.4570909 0.92684639 -0.34764147 -0.14177871 0
2.4279916 0.16882281 1.474532 -0.96326047 0.26491338 0.044161495 0
2.4632683 0.17909294 1.4700242 0.92062986 -0.39037469 -0.0069386899 0
2.5437396 0.16697253 1.4722104 -0.85570067 0.51442719 0.056044433 0
2.5528738 0.18728463 1.4739834 -0.96939242 0.24550101 0.0027469767 0
2.4423523 0.20446602 1.4691305 -0.65544826 0.75514698 0.011857316 0
2.4617295 0.20780748 1.4749494 0.36585268 0.93067271 -0.00024363227 0
2.5592093 0.22513396 1.4769738 -0.99371833 0.11158639 -0.0085056499 0
2.5640635 0.27411973 1.4763291 -0.99657232 0.082698636 -0.0021165858 0
2.5682135 0.32715607 1.482051 -0.99750453 0.070569344 0.0021413618 0
2.5712979 0.37467715 1.4747047 -0.99806386 0.061176226 0.011223587 0
2.5736513 0.42833051 1.4695417 -0.99981046 0.018218368 -0.006867683 0
2.5742106 0.47313052 1.477543 -0.99996358 0.0027661279 0.0080699464 0
2.5682683 0.52197587 1.473786 -0.99409086 -0.10853442 0.0019235803 0
2.5767765 0.57726741 1.4769231 -0.97749275 0.21091354 -0.0048483731 0
2.5804265 0.62354469 1.4750279 -0.99912918 0.041349784 0.0055808774 0
2.5821486 0.67934412 1.4746091 -0.99984294 0.016052155 0.0075073387 0
2.5833192 0.72105592 1.4782758 -0.99944985 0.028042726 0.017705273 0
2.5839074 0.77898282 1.4766976 -0.99963158 0.019142242 -0.019240675 0
2.5885501 0.80924398 1.4726086 -0.8890326 0.45635265 -0.036921944 0
2.6145933 0.82852763 1.4697167 -0.26194856 0.96469349 -0.027377546 0
2.4455624 -0.4032813 1.5351101 -0.49498653 -0.86846954 -0.02736856 0
2.4771862 -0.41176951 1.5263418 -0.18995768 -0.9817642 -0.0074203787 0
2.5170827 -0.41774294 1.5247627 -0.10009562 -0.99492991 -0.0097639002 0
2.5550027 -0.42296958 1.5161194 -0.25721011 -0.96634579 -0.0043254867 0
2.3956552 -0.35703406 1.522689 -0.74728215 -0.66445208 -0.0085277651 0
2.4175498 -0.37946036 1.5266603 -0.68428785 -0.72908944 -0.01336789 0
2.3721051 -0.32292989 1.5244482 -0.85627306 -0.5151183 -0.038073245 0
2.3465807 -0.26311234 1.5288955 -0.96697301 -0.25434026 -0.016560985 0
2.3539371 -0.28736517 1.5310551 -0.94134384 -0.33639628 -0.026632393 0
2.3409753 -0.22884691 1.5234206 -0.99428844 -0.10650646 -0.0068358956 0
2.3392956 -0.17270678 1.5234705 -0.99918008 0.039288115 0.009780501 0
2.3438363 -0.12438059 1.5239139 -0.99070257 0.13538912 0.01334938 0
2.3482304 -0.095764354 1.5267121 -0.98583162 0.16728741 0.012286385 0
2.353755 -0.068621844 1.5218838 -0.97461283 0.2238961 0.00061962003 0
2.3638661 -0.029069964 1.5290364 -0.96244848 0.27099669 0.015922181 0
2.3805082 0.025373342 1.521134 -0.95052075 0.30998275 0.020518029 0
2.4194415 0.04645054 1.5358843 0.99980736 -0.018856244 0.0054382225 0
2.3933644 0.064194217 1.5239218 -0.94037032 0.33963114 0.018821228 0
2.4190478 0.08060766 1.5254228 0.91688812 -0.39847484 0.023109317 0
2.4299345 0.12311523 1.5226775 -0.93290401 0.061799295 -0.354783 0
2.45226 0.14627363 1.5190121 0.79843146 -0.59978956 -0.05253356 0
2.4320726 0.17746988 1.523488 -0.95633101 0.29015377 0.035239145 0
2.4636221 0.17485146 1.5197341 0.98125523 -0.16841953 -0.093664922 0
2.5452905 0.17701396 1.5259875 -0.95830643 0.27336788 -0.083179154 0
2.4435654 0.2035079 1.5266898 -0.65756518 0.75307596 0.022011271 0
2.4616673 0.20733695 1.5260222 0.32959557 0.94285417 -0.04891609 0
2.5495105 0.20153934 1.5367339 -0.86565065 0.49739292 -0.057002109 0
2.5580986 0.2217322 1.5312431 -0.97532481 0.21993114 -0.019283229 0
2.5637267 0.2731787 1.5245031 -0.99594599 0.089604683 0.0079142321 0
2.5686955 0.33033717 1.522154 -0.99741608 0.071602821 0.0058434568 0
2.5711453 0.36949015 1.522957 -0.99832821 0.057348043 0.0071978229 0
2.5737247 0.42679906 1.5276142 -0.99962127 0.027335092 0.0031817853 0
2.5745928 0.47331354 1.5269331 -0.99973327 0.022955289 0.0025324037 0
2.5693285 0.52315062 1.5249358 -0.99389982 -0.10758519 0.024257213 0
2.5752444 0.57435727 1.5233417 -0.97853988 0.20557624 -0.014072718 0
2.5807862 0.62680316 1.5252681 -0.99830586 0.058139712 -0.0022944168 0
2.5829668 0.67807966 1.5284495 -0.99977106 0.016604651 0.013492642 0
2.5839887 0.72714651 1.5265758 -0.99956214 0.029352853 0.0037271203 0
2.5836546 0.77135295 1.5206469 -0.99979663 -0.019882377 -0.0033805305 0
2.5879803 0.81061506 1.5237548 -0.8171373 0.57189327 0.072282292 0
2.6203239 0.82939112 1.5138773 -0.32424662 0.94595754 0.0053379363 0
2.4467409 -0.40371421 1.5635928 -0.41896942 -0.90791374 0.012535926 0
2.4735148 -0.41122356 1.5752598 -0.20049842 -0.97937948 -0.024825862 0
2.5199521 -0.41800278 1.578801 -0.082877405 -0.99646252 0.013918859 0
2.554637 -0.42319354 1.58075 -0.24440286 -0.96966583 -0.0039085662 0
2.3939321 -0.35681397 1.5796657 -0.76400369 -0.64396673 -0.040064886 0
2.4212925 -0.38413879 1.5735924 -0.664698 -0.74674624 -0.023378128 0
2.3693404 -0.3211773 1.5733329 -0.84794688 -0.52963841 -0.021661671 0
2.3478055 -0.27169415 1.5776641 -0.963808 -0.26622629 0.014057703 0
2.3533022 -0.28937188 1.5673814 -0.94900018 -0.31385249 -0.029922776 0
2.3395839 -0.22198066 1.5742832 -0.99721438 -0.072987333 -0.015372589 0
2.3394234 -0.17736141 1.5757034 -0.99874616 0.04907022 0.0099119535 0
2.3448212 -0.1226171 1.5730103 -0.99042213 0.13703495 0.016891655 0
2.3488951 -0.092673771 1.5620241 -0.98479885 0.17339051 0.010343097 0
2.3534625 -0.073653385 1.578115 -0.97461927 0.22131003 0.033751775 0
2.3657262 -0.026958842 1.5787185 -0.95942074 0.27922383 0.039317459 0
2.3819215 0.026328804 1.5782313 -0.94701648 0.31625879 0.056037683 0
2.4197156 0.043424632 1.5786572 0.98749048 -0.15724175 -0.011726333 0
2.3959012 0.066877455 1.579159 -0.94036543 0.33566341 0.055161934 0
2.4191201 0.082636677 1.571779 0.74631608 -0.63545984 0.19799754 0
2.426471 0.1219674 1.5766416 -0.93724054 0.34868336 0.00020889977 0
2.4544055 0.14494908 1.5735168 0.87896764 -0.45227185 0.15121543 0
2.4329867 0.17558481 1.5761508 -0.94154978 0.33553278 0.030030452 0
2.472012 0.18117131 1.5831004 0.90057623 -0.43464494 -0.0067893919 0
2.5411468 0.19019224 1.575034 -0.7824651 0.62071478 -0.049614817 0
2.4454262 0.20298088 1.5800632 -0.75021535 0.65962869 0.045462631 0
2.4697578 0.20394059 1.5812515 0.36069456 0.93268371 -0.00083403866 0
2.5583372 0.22825535 1.574644 -0.98133951 0.19217469 -0.0064597051 0
2.5634189 0.26860571 1.5717082 -0.99341893 0.11453816 -6.2034967e-05 0
2.5686374 0.32521021 1.5705605 -0.99713761 0.075576179 -0.002218469 0
2.5716984 0.3776494 1.5742357 -0.99875641 0.049804315 -0.0022628882 0
2.5735905 0.42627242 1.5743585 -0.99973732 0.021166502 0.008790561 0
2.5747297 0.46867052 1.5725605 -0.99974734 0.02099536 0.0080320248 0
2.5695472 0.52394098 1.5755763 -0.99209964 -0.12533405 -0.0054515963 0
2.5751908 0.57165056 1.5704356 -0.97678643 0.21293487 0.023385979 0
2.5809786 0.62718135 1.5726479 -0.99821097 0.058219589 0.013609681 0
2.5828276 0.66807818 1.5794656 -0.99966633 0.025180787 -0.0057588639 0
2.5843725 0.72277808 1.5744488 -0.99939311 0.034833804 8.7627268e-06 0
2.5847533 0.77346796 1.5763565 -0.99903303 0.024110999 0.036764171 0
2.5930748 0.81303912 1.5801109 -0.76907051 0.63910937 0.0083508706 0
2.6194508 0.82604784 1.5731138 -0.40170619 0.91560662 -0.017221369 0
2.4430215 -0.40134797 1.6449428 -0.48042902 -0.87699693 0.0080257636 0
2.4753861 -0.41267097 1.6229882 -0.2353186 -0.9718219 -0.013687001 0
2.5260141 -0.41796914 1.6207317 -0.11892664 -0.99258262 0.025222052 0
2.5552716 -0.42346674 1.6317291 -0.35615164 -0.93366134 0.037847985 0
2.3933003 -0.35757831 1.6158227 -0.75866538 -0.65142781 -0.0082892925 0
2.4224923 -0.38645253 1.6249936 -0.62788332 -0.77807617 -0.018975917 0
2.3716807 -0.32686964 1.6245307 -0.85066819 -0.52538282 -0.018344067 0
2.3452418 -0.2631748 1.624748 -0.97390932 -0.2252454 -0.027662048 0
2.3524721 -0.28898424 1.6314726 -0.95138437 -0.30758891 -0.016024381 0
2.3403955 -0.22866893 1.6230147 -0.99661684 -0.082148135 -0.0025555319 0
2.3400648 -0.17057697 1.625411 -0.99845254 0.054668684 0.010191195 0
2.3451741 -0.12346521 1.6262069 -0.98700225 0.16070037 0.0014363041 0
2.34991 -0.097358383 1.6358218 -0.98074615 0.19487238 -0.012720109 0
2.3542686 -0.076308846 1.6243273 -0.97774845 0.20910491 0.016821427 0
2.3669302 -0.02806465 1.625369 -0.95746619 0.28751549 0.024360243 0
2.383281 0.024200765 1.6301298 -0.95167691 0.30707312 0.0041339784 0
2.3959568 0.062042926 1.628289 -0.94474751 0.32706586 0.02191174 0
2.4087393 0.08911784 1.621223 -0.94700181 0.32121989 -0.0023071913 0
2.4199018 0.1279031 1.6285607 -0.94071323 0.33871123 0.018255198 0
2.4538977 0.14350736 1.6052042 0.86682105 -0.48856378 -0.099632859 0
2.4359946 0.17761324 1.6278394 -0.91406339 0.38667533 0.12235274 0
2.4727476 0.17843364 1.6180142 0.9218421 -0.38362727 -0.055109963 0
2.5332029 0.18791772 1.630486 -0.70398587 0.64409858 0.29923406 0
2.447423 0.20288454 1.6153988 -0.72603011 0.68482304 0.062431309 0
2.4603298 0.2073556 1.6266726 -0.14237046 0.98334813 -0.11294787 0
2.5465794 0.20235826 1.6125053 -0.73540145 0.67329836 -0.076511562 0
2.5579133 0.22777112 1.6279259 -0.97541749 0.21983491 -0.015276006 0
2.5629537 0.26960906 1.6298101 -0.99436849 0.096756272 -0.043238718 0
2.5681794 0.32256165 1.6231726 -0.99347925 0.065576211 -0.093267247 0
2.5697408 0.37574551 1.6251943 -0.97029471 0.038020439 -0.23891975 0
2.5730245 0.42839575 1.6223108 -0.98856115 0.047505457 -0.14314312 0
2.5738351 0.46905646 1.6263602 -0.98326647 0.013472795 -0.18167426 0
2.5683753 0.52151841 1.6223809 -0.9861697 -0.16000661 -0.043211192 0
2.5765233 0.57732326 1.6271744 -0.98168808 0.17833111 -0.066981554 0
2.58056 0.62000459 1.6268573 -0.99738073 0.053246852 -0.048952285 0
2.5830607 0.67767859 1.6189786 -0.99965513 0.025597977 0.0058632563 0
2.5844457 0.72717494 1.6316063 -0.99846482 0.030048272 -0.046529919 0
2.5853682 0.77410847 1.6224971 -0.99813306 0.051570937 -0.032723606 0
2.5914867 0.80840737 1.6288149 -0.93702334 0.34084162 -0.076251104 0
2.617029 0.82287163 1.627206 -0.17293461 0.98187804 0.077518485 0
2.4460297 -0.40289515 1.6803516 -0.51758248 -0.85550153 -0.015018639 0
2.4708502 -0.41170487 1.6725973 -0.2352598 -0.97191942 0.00505589 0
2.5231321 -0.41780254 1.6731658 -0.093057826 -0.99461353 -0.045653287 0
2.5547249 -0.42352349 1.6770184 -0.27500859 -0.96006155 -0.051498193 0
2.3917637 -0.35717586 1.6726778 -0.78383195 -0.6207273 -0.017466798 0
2.421206 -0.38601547 1.6760794 -0.621966 -0.78207481 -0.038952403 0
2.371738 -0.32904002 1.6724696 -0.8475436 -0.52927989 -0.039149839 0
2.3469245 -0.27260408 1.6698757 -0.9653421 -0.26086444 -0.0080193309 0
2.3518522 -0.28952777 1.6712314 -0.95965368 -0.2808648 -0.013410002 0
2.3399317 -0.2252509 1.6810622 -0.99799031 -0.063342638 -0.0017117397 0
2.3401284 -0.16910183 1.6763678 -0.99763662 0.068542562 0.004793759 0
2.3455377 -0.12505175 1.6774848 -0.98708302 0.15925701 0.017441632 0
2.3499436 -0.099410631 1.6879493 -0.98341709 0.17927177 0.027432432 0
2.3547311 -0.077453509 1.6710966 -0.97075486 0.23937066 0.018351339 0
2.3677893 -0.029585963 1.6736941 -0.96029484 0.27852684 0.016018748 0
2.3843999 0.024564067 1.6740288 -0.95218378 0.30552551 -0.0004659433 0
2.3956814 0.057936542 1.6679739 -0.93839544 0.34534809 0.012196347 0
2.4062405 0.08593104 1.6722647 -0.94057399 0.33524707 0.054129712 0
2.4192765 0.12356339 1.674122 -0.94509977 0.32411689 0.041648012 0
2.4394197 0.17687684 1.6730187 -0.93602443 0.3498686 0.038082562 0
2.5453541 0.19464678 1.6608982 -0.94354564 0.32005969 0.085343003 0
2.4491575 0.20321259 1.6651187 -0.93326318 0.3585574 0.021363087 0
2.4641669 0.2293355 1.6714694 -0.82689923 0.45127866 -0.33553734 0
2.5586307 0.2328124 1.6561813 -0.98937505 0.1445035 -0.015995057 0
2.4873075 0.27499637 1.6727077 -0.70236772 0.32605001 -0.63274872 0
2.523829 0.2869845 1.6603867 0.17566116 -0.1921761 -0.96551096 0
2.5607207 0.27523801 1.6572176 -0.95337057 -0.075372025 -0.29223898 0
2.4962554 0.31107724 1.6834515 -0.91184616 0.34940615 -0.21552721 0
2.5263841 0.32053086 1.6617575 -0.26835045 0.020833638 -0.96309608 0
2.5564075 0.30894637 1.6543334 -0.56859869 -0.11644897 -0.81433111 0
2.5269792 0.37757015 1.6725689 -0.82611692 0.27716261 -0.49062383 0
2.5522957 0.37489134 1.6531188 -0.30349687 -0.020438628 -0.95261323 0
2.5386488 0.42448109 1.6782588 -0.89845777 0.25410643 -0.35805541 0
2.5541713 0.4233363 1.6548964 -0.5585137 0.093973406 -0.82415497 0
2.5472734 0.46591535 1.678849 -0.96004826 0.23479718 -0.15224186 0
2.5559173 0.48221737 1.6704241 -0.87473959 0.1769471 -0.45113224 0
2.5615835 0.52580851 1.6716566 -0.97356451 0.17890237 -0.14200731 0
2.5703642 0.57490999 1.6743062 -0.98587823 0.14739567 -0.07949014 0
2.5759721 0.62370545 1.6785876 -0.99473619 0.088693172 -0.051317133 0
2.5796764 0.67891693 1.6708498 -0.99624169 0.029109493 -0.081578627 0
2.5801554 0.72403425 1.676797 -0.99839348 0.0078121172 -0.056120243 0
2.5824282 0.77973479 1.6801395 -0.97891414 0.20125701 -0.034967102 0
2.5900886 0.80838299 1.6681964 -0.62189364 0.76928276 0.14646599 0
2.6122897 0.82098955 1.6694822 -0.45527133 0.88990277 0.028304448 0
2.4428968 -0.40269959 1.7358977 -0.51638973 -0.85532975 -0.041865069 0
2.4746742 -0.41268986 1.7180918 -0.1969547 -0.9801181 0.024027813 0
2.5256639 -0.41979432 1.7261457 -0.11062356 -0.99380904 -0.010296279 0
2.5548494 -0.42381293 1.7255087 -0.22459377 -0.9744494 -0.0024537046 0
2.392976 -0.36008328 1.7232002 -0.80179727 -0.59510297 -0.054531045 0
2.4215691 -0.38801011 1.7243443 -0.56678605 -0.82344055 -0.026443942 0
2.3674881 -0.32335716 1.721758 -0.85728115 -0.51371312 -0.034174707 0
2.3459382 -0.27033165 1.7227758 -0.96916443 -0.24640666 -0.0020382169 0
2.3524923 -0.29283446 1.7209277 -0.95790946 -0.28706163 0.0022552325 0
2.3397694 -0.22609629 1.723259 -0.99874324 -0.050072197 -0.0022059714 0
2.3401785 -0.17928404 1.7226219 -0.99823153 0.059441023 -0.00080276647 0
2.3473032 -0.1194107 1.730342 -0.98706061 0.1598812 0.01222438 0
2.3576946 -0.070675753 1.7212807 -0.96875203 0.24732715 0.018677007 0
2.3693357 -0.027001103 1.7248875 -0.96371984 0.26602873 0.021741007 0
2.3849964 0.022381982 1.7265704 -0.94620305 0.3227303 0.023343861 0
2.3971126 0.056244735 1.7214001 -0.93572628 0.35113525 0.033472314 0
2.4074299 0.083625764 1.7241005 -0.93442619 0.35551623 0.021352122 0
2.4219937 0.12738475 1.7218794 -0.94845283 0.31644166 0.017375993 0
2.441098 0.17837004 1.7276601 -0.93139017 0.36386642 0.010653575 0
2.4499698 0.20076455 1.7255419 -0.94458568 0.32600915 0.038418893 0
2.4605021 0.22741494 1.7271534 -0.92480743 0.37953323 0.026186228 0
2.4814277 0.27730367 1.7272798 -0.92164862 0.38791248 -0.0093596745 0
2.4957342 0.31278133 1.7279276 -0.93700892 0.34878474 -0.019063186 0
2.5043581 0.33502373 1.7192291 -0.93787801 0.34685773 0.0086392062 0
2.5183218 0.37323272 1.7279569 -0.93773681 0.34732816 -0.0035891773 0
2.5355291 0.42634454 1.7208083 -0.96356219 0.26742262 -0.0057557155 0
2.5460429 0.46658033 1.7224562 -0.97072524 0.24002831 -0.0088873785 0
2.5513251 0.48844263 1.7195853 -0.97395343 0.22643846 -0.011846763 0
2.5582125 0.51955855 1.7282341 -0.97734582 0.21164569 0.0011134113 0
2.5692255 0.57498276 1.7255447 -0.98546809 0.16791251 -0.025653496 0
2.5760546 0.62842202 1.7263712 -0.99568617 0.092782892 -0.00073098508 0
2.5791748 0.67496681 1.7286178 -0.99878353 0.043240793 0.023698611 0
2.5804877 0.72572589 1.7257237 -0.99969494 0.0049121943 0.024204452 0
2.5818214 0.77845055 1.7210659 -0.99113965 0.13263935 0.0070084576 0
2.5911105 0.80745882 1.7261082 -0.67160225 0.74042851 -0.026757421 0
2.6106589 0.81917483 1.7172796 -0.51244009 0.85871708 0.0031813574 0
2.4419515 -0.40182549 1.7674713 -0.33694774 -0.94071043 -0.039115254 0
2.4797673 -0.41182327 1.770805 -0.22722112 -0.97252613 0.050631039 0
2.5247262 -0.41882813 1.7694135 -0.12507868 -0.99175936 0.027724499 0
2.5530593 -0.42261231 1.7753334 -0.24891451 -0.96846116 0.011159462 0
2.3908541 -0.36376286 1.7658442 -0.78606886 -0.60979921 -0.10119639 0
2.4139836 -0.38688514 1.7702888 -0.60925543 -0.78758776 -0.092267774 0
2.3631613 -0.3250798 1.7757472 -0.87121409 -0.47718281 -0.11525047 0
2.3447158 -0.27440125 1.7777033 -0.97108859 -0.22357021 -0.083686061 0
2.3513792 -0.29682806 1.7685403 -0.97189814 -0.20527987 -0.11521357 0
2.3394971 -0.22968961 1.776278 -0.99654275 -0.048391987 -0.067534022 0
2.3404424 -0.17388056 1.7738791 -0.9968341 0.079376742 0.0046030474 0
2.3451464 -0.13397011 1.7724938 -0.98716676 0.1594477 0.0088459188 0
2.3510976 -0.1026959 1.7794051 -0.98379123 0.1789282 0.01181112 0
2.3582909 -0.073251814 1.7829576 -0.96599448 0.25837794 0.0097720865 0
2.3716061 -0.022814518 1.7777153 -0.96278358 0.26874816 0.028673241 0
2.3882489 0.029357977 1.7771095 -0.94468677 0.32787061 0.0082245097 0
2.3977678 0.0573918 1.7787308 -0.95140308 0.30770692 0.012188535 0
2.4047911 0.076962851 1.770744 -0.93114942 0.36448732 0.010477348 0
2.4242251 0.13012284 1.7778034 -0.9431724 0.33110461 0.028205179 0
2.440999 0.17673029 1.7724148 -0.9342472 0.35480535 0.035992514 0
2.4604242 0.2254879 1.7784046 -0.93005729 0.36738893 0.0043512308 0
2.4835811 0.28226039 1.773411 -0.92723244 0.37440962 0.00758063 0
2.4930301 0.30501023 1.7646915 -0.92001837 0.39160931 0.014436278 0
2.5060031 0.3375546 1.7741126 -0.9438585 0.32996291 0.015986813 0
2.5193472 0.37737924 1.7745594 -0.94620562 0.3234781 -0.0075342697 0
2.5345948 0.42431411 1.7807646 -0.95612746 0.2929219 -0.0041243597 0
2.5453513 0.46238786 1.7731503 -0.96383405 0.26650062 0.0011603888 0
2.5521779 0.48998797 1.7752026 -0.97124517 0.23758909 0.015304506 0
2.5602379 0.52674419 1.7689394 -0.97863144 0.20486493 0.01763273 0
2.5692456 0.57658011 1.771891 -0.98905593 0.14694609 0.013235852 0
2.5753896 0.62258172 1.77398 -0.993132 0.11615238 0.014048489 0
2.5802011 0.67451793 1.7745403 -0.99766088 0.062110983 0.028547751 0
2.581706 0.7276178 1.775853 -0.99954432 -0.013503535 0.026997378 0
2.5812166 0.76985466 1.7782589 -0.99948156 0.016635627 -0.027565096 0
2.5918064 0.80602807 1.7697868 -0.72507042 0.68829316 0.022922799 0
2.6170602 0.82050991 1.781399 -0.31436053 0.94816422 -0.046498187 0
2.5447142 -0.42091092 1.804233 -0.23755872 -0.97069299 -0.036346309 0
2.3865893 -0.364077 1.8255296 -0.78428745 -0.6193828 -0.035469707 0
2.348948 -0.30508339 1.8361803 -0.95076519 -0.30651948 -0.045732316 0
2.362128 -0.33167446 1.8204591 -0.83921933 -0.54078239 -0.05714234 0
2.3412688 -0.27513844 1.8231792 -0.97168976 -0.23172571 -0.046067119 0
2.3337865 -0.21903308 1.8264129 -0.99428952 -0.010186179 -0.10622931 0
2.3375907 -0.17123167 1.8274231 -0.98178506 0.13252318 -0.13614625 0
2.3445728 -0.1339713 1.8251463 -0.9732613 0.21609674 -0.077875935 0
2.3514233 -0.10243173 1.8177061 -0.97244501 0.2319002 -0.023938222 0
2.3584046 -0.0760286 1.8239266 -0.96219754 0.27185845 0.016397143 0
2.3727255 -0.025057582 1.824753 -0.96026248 0.2774111 0.030641776 0
2.3890531 0.027946519 1.8237923 -0.94099051 0.33772722 0.021843148 0
2.3986073 0.056842193 1.8211992 -0.95396656 0.2995204 0.015337882 0
2.4072924 0.081817009 1.8275878 -0.94127029 0.33754787 0.0084729437 0
2.4232967 0.12476017 1.824645 -0.93703055 0.34912568 0.0092243915 0
2.4424775 0.17701161 1.8245305 -0.93830216 0.34568909 0.0093905842 0
2.4506614 0.19843777 1.8455774 -0.91783756 0.39691219 0.0059085251 0
2.4591975 0.22041807 1.8197484 -0.93459588 0.35509095 0.020999672 0
2.4802182 0.27407435 1.8231709 -0.92424822 0.38177088 0.004010994 0
2.4956293 0.30998021 1.8240064 -0.92232019 0.38642469 0.0011541652 0
2.506011 0.33729193 1.8276826 -0.94728428 0.32038376 0.0025909173 0
2.5180306 0.37244466 1.8206785 -0.95016783 0.31142733 0.013932274 0
2.5344818 0.42373496 1.8285021 -0.95938236 0.28198302 0.0084287198 0
2.5472341 0.46852779 1.8204471 -0.96854067 0.24885044 -0.0015464176 0
2.5521197 0.48763052 1.829264 -0.96913409 0.24627681 0.011262258 0
2.5605555 0.52429301 1.819569 -0.97775966 0.20903765 0.017010415 0
2.5684144 0.56711161 1.8284839 -0.98996496 0.14047466 0.01536728 0
2.576637 0.62433785 1.824499 -0.99180222 0.12754025 0.0078619095 0
2.5819685 0.68065429 1.8259798 -0.99783939 0.061862808 0.022125533 0
2.5831749 0.71906048 1.8231434 -0.99971527 0.0005725284 0.023856683 0
2.5821853 0.77229989 1.827994 -0.99768454 0.021340163 0.064576611 0
2.5891304 0.80721396 1.8260444 -0.69540364 0.71214139 -0.096272975 0
2.612447 0.82171315 1.8266575 -0.38989154 0.92011768 -0.036986891 0
2.3826632 -0.36071369 1.8704662 -0.77372783 -0.63313198 0.02211646 0
2.3482029 -0.31064588 1.8804432 -0.94953585 -0.27364811 -0.15329206 0
2.357172 -0.32821155 1.8691036 -0.85587299 -0.5146482 -0.051173057 0
2.3398147 -0.27672642 1.8784382 -0.96642226 -0.21904334 -0.13434292 0
2.3318329 -0.22021918 1.8663416 -0.9983356 -0.051948957 -0.025046818 0
2.332211 -0.17643213 1.870433 -0.99168444 0.099650949 -0.081435293 0
2.3396444 -0.13032456 1.8725739 -0.97025341 0.22116594 -0.098458067 0
2.3484502 -0.082657784 1.8918469 -0.96217316 0.24798122 -0.11281919 0
2.3578906 -0.07193239 1.8705584 -0.91493928 0.34514511 -0.20919132 0
2.3732729 -0.021858582 1.8756614 -0.95585173 0.27370059 -0.10693635 0
2.3870659 0.022608412 1.8767958 -0.94784009 0.31215808 -0.064470604 0
2.3980103 0.05522614 1.878315 -0.94920737 0.29870966 -0.098883256 0
2.4066699 0.080177844 1.870628 -0.94659781 0.32125026 -0.027399639 0
2.4234302 0.12723875 1.8784195 -0.92113757 0.37787822 -0.093347125 0
2.440526 0.17005788 1.8733965 -0.94148743 0.33696499 -0.0074767717 0
2.4508905 0.19893363 1.8825802 -0.93626285 0.34898475 0.040268932 0
2.4493241 0.20003742 1.8998315 -0.88533604 0.34933814 -0.30682749 0
2.4609468 0.22488315 1.8839717 -0.93173426 0.35428843 -0.079693764 0
2.4813137 0.27653271 1.8740479 -0.93019676 0.36414215 -0.046199299 0
2.4956934 0.31246877 1.8738209 -0.92400044 0.37228534 -0.08733207 0
2.5034461 0.33298063 1.874106 -0.93371075 0.34961051 -0.077180758 0
2.5167851 0.37154588 1.8711828 -0.94300503 0.32135075 -0.08645907 0
2.5352886 0.42886525 1.87297 -0.95881355 0.27524444 -0.070122421 0
2.5441101 0.46239471 1.881905 -0.95587581 0.26845503 -0.11930335 0
2.5507319 0.48752174 1.8818022 -0.96083623 0.22873597 -0.15644005 0
2.5607016 0.52801424 1.867836 -0.97934264 0.19439867 -0.055651631 0
2.5685081 0.57443029 1.8755952 -0.98635048 0.15317126 -0.060426675 0
2.5755086 0.62261641 1.8718736 -0.99030375 0.12857276 -0.05260732 0
2.5811672 0.67040741 1.8732153 -0.99355859 0.1037843 -0.045499295 0
2.5846143 0.72413993 1.8805306 -0.99861985 0.015832866 -0.05007701 0
2.5838625 0.76969981 1.8759727 -0.99974996 0.0050078556 0.021791209 0
2.5936465 0.80747771 1.8522186 -0.07581459 0.9971199 -0.0020148277 0
2.6108544 0.81886244 1.883384 -0.53359926 0.84073454 0.091854602 0
2.3285542 -0.20207034 1.9030342 -0.98693889 -0.022353893 -0.15953667 0
2.331846 -0.16623609 1.9043822 -0.99134302 0.11326106 -0.066415712 0
2.3415618 -0.107638 1.9009964 -0.97278768 0.2238133 -0.059931092 0
2.345258 -0.08953876 1.9039307 -0.95718062 0.2659305 -0.1143948 0
2.3648059 -0.022651769 1.90345 -0.85560179 0.3202019 -0.40671414 0
2.3853121 0.028592156 1.9079423 -0.91701108 0.35885313 -0.17411211 0
2.4011917 0.048100144 1.9229503 -0.772008 0.032873314 0.63476217 0
2.3965085 0.065724321 1.904482 -0.91459131 0.12993699 -0.38293478 0
2.4028912 0.080006443 1.9018326 -0.83646226 0.22588964 -0.49930429 0
2.4131453 0.1178963 1.903983 -0.81965446 0.29044566 -0.49376905 0
2.4371154 0.17668164 1.9056183 -0.77677906 0.2959072 -0.55592543 0
2.4480612 0.2047759 1.9072715 -0.82385635 0.28379095 -0.49063572 0
2.4551134 0.22404514 1.9068046 -0.76126665 0.31526536 -0.5666399 0
2.4722989 0.26888219 1.9065028 -0.8128224 0.29015651 -0.50510287 0
2.4886127 0.31650615 1.9094107 -0.80621868 0.31968111 -0.4978106 0
2.5016167 0.34176508 1.9015409 -0.87505901 0.30778742 -0.37354866 0
2.5146186 0.37774214 1.9141337 -0.9390536 0.31310299 0.14193231 0
2.5298638 0.42059869 1.9162986 -0.94610322 0.23046973 0.22753549 0
2.5515928 0.44934329 1.9298729 -0.079744086 -0.0794103 0.99364728 0
2.5413229 0.46917337 1.9162953 -0.96313691 0.24351683 0.11430967 0
2.555203 0.49324289 1.9277101 -0.44791678 0.051585123 0.89258587 0
2.548604 0.51195681 1.9100934 -0.89279038 0.19756986 -0.40483519 0
2.5614336 0.52652955 1.9192435 -0.84030074 0.20728557 0.50092661 0
2.5668972 0.57041121 1.9201146 -0.86623818 0.19219553 0.46118572 0
2.5741405 0.62456179 1.9203926 -0.80461532 0.077668026 0.58869505 0
2.578536 0.6686554 1.9200646 -0.95358741 -0.061658822 0.29473582 0
2.5828168 0.7232278 1.9198006 -0.87983131 0.067129351 0.47052151 0
2.5867202 0.76992059 1.9176751 -0.79524457 0.2843672 0.53546369 0
2.6028156 0.78601754 1.9278634 -0.51387811 0.10882504 0.85093266 0
2.5937777 0.80290604 1.9091914 -0.56594342 0.59955311 0.56590122 0
2.6084423 0.81407166 1.9070534 -0.56223333 0.78015584 0.27431825 0

