# .PCD v0.7 - Point Cloud Data file format
VERSION 0.7
FIELDS x y z normal_x normal_y normal_z curvature
SIZE 4 4 4 4 4 4 4
TYPE F F F F F F F
COUNT 1 1 1 1 1 1 1
WIDTH 321
HEIGHT 1
VIEWPOINT 0 0 0 1 0 0 0
POINTS 321
DATA ascii
0.5440211108893698 -0.8390715290764524 -10.0 0 0 0 0
0.5005396649894599 -0.8657136037814349 -9.948999999999938 0 0 0 0
0.4557565975840648 -0.8901044454212084 -9.897999999999875 0 0 0 0
0.4097883641864908 -0.9121806271662208 -9.846999999999813 0 0 0 0
0.36275450225869044 -0.9318847413124918 -9.79599999999975 0 0 0 0
0.31477732036170963 -0.9491655485666879 -9.744999999999688 0 0 0 0
0.2664635358879339 -0.9638450000088706 -9.694499999999627 0 0 0 0
0.2169822865602245 -0.9761755412419924 -9.643499999999564 0 0 0 0
0.16693678862196373 -0.9859676001799379 -9.592499999999502 0 0 0 0
0.11695376548050794 -0.993137360459232 -9.54199999999944 0 0 0 0
0.06617364861151318 -0.997808121950027 -9.490999999999378 0 0 0 0
0.015221451385747924 -0.9998841469978966 -9.439999999999316 0 0 0 0
-0.03577032825446754 -0.9993600370319836 -9.388999999999253 0 0 0 0
-0.08617096004490124 -0.9962803649801295 -9.338499999999192 0 0 0 0
-0.13684719421335553 -0.9905921690766246 -9.28749999999913 0 0 0 0
-0.18716756597286932 -0.9823280013558565 -9.236499999999067 0 0 0 0
-0.23700122040298885 -0.9715093522594077 -9.185499999999005 0 0 0 0
-0.28621856826066266 -0.9581643549949124 -9.134499999998942 0 0 0 0
-0.334220417295802 -0.9424949403909922 -9.08399999999888 0 0 0 0
-0.38183226536643233 -0.9242316382407272 -9.032999999998818 0 0 0 0
-0.4284511829605149 -0.9035649306052861 -8.981999999998756 0 0 0 0
-0.47395594055330426 -0.8805485599410362 -8.930999999998694 0 0 0 0
-0.5182282059221466 -0.8552423788533361 -8.879999999998631 0 0 0 0
-0.5611528518618843 -0.8277121944536483 -8.828999999998569 0 0 0 0
-0.6026182555658183 -0.7980295972323396 -8.777999999998507 0 0 0 0
-0.6425165888937033 -0.7662717748921722 -8.726999999998444 0 0 0 0
-0.6807440987719572 -0.732521311626601 -8.675999999998382 0 0 0 0
-0.7172013769969167 -0.6968659733648406 -8.62499999999832 0 0 0 0
-0.7514638255393035 -0.6597742939110581 -8.574499999998258 0 0 0 0
-0.7841206629073827 -0.6206083998800587 -8.523499999998196 0 0 0 0
-0.8147384444540676 -0.5798286532490147 -8.472499999998133 0 0 0 0
-0.8432375505893459 -0.537541099150642 -8.42149999999807 0 0 0 0
-0.869543871203615 -0.49385570367490034 -8.370499999998009 0 0 0 0
-0.8935889983863001 -0.4488860679091844 -8.319499999997946 0 0 0 0
-0.915310404316267 -0.40274913252593353 -8.268499999997884 0 0 0 0
-0.9346516038614362 -0.35556487368586476 -8.217499999997822 0 0 0 0
-0.9514084545303668 -0.30793173374652205 -8.16699999999776 0 0 0 0
-0.9658691273958925 -0.25903055561747373 -8.115999999997698 0 0 0 0
-0.9778181191387462 -0.2094557850334168 -8.064999999997635 0 0 0 0
-0.9872243571672646 -0.15933633802645636 -8.013999999997573 0 0 0 0
-0.9940088556296344 -0.10929956509458205 -7.963499999997511 0 0 0 0
-0.9982882889677995 -0.05848497336703924 -7.912499999997449 0 0 0 0
-0.9999717372193047 -0.007518295192793216 -7.8614999999973865 0 0 0 0
-0.9990548226842375 0.04346793382905193 -7.810499999997324 0 0 0 0
-0.9955399297404226 0.09434112725865867 -7.759499999997262 0 0 0 0
-0.9894361986429989 0.1449689925980447 -7.7084999999971995 0 0 0 0
-0.9807595017557686 0.19521987530929455 -7.657499999997137 0 0 0 0
-0.9695324022761262 0.2449631011737967 -7.606499999997075 0 0 0 0
-0.9559310107398171 0.2935913873156902 -7.555999999997013 0 0 0 0
-0.9397214211660286 0.3419410045632133 -7.504999999996951 0 0 0 0
-0.9210681459135427 0.3894014260161214 -7.4539999999968884 0 0 0 0
-0.9000196916361065 0.43584923387250296 -7.402999999996826 0 0 0 0
-0.876630793497906 0.48116364356758273 -7.351999999996764 0 0 0 0
-0.8509622728382586 0.5252268178662862 -7.3009999999967015 0 0 0 0
-0.8230808790095967 0.5679241732914612 -7.249999999996639 0 0 0 0
-0.7930591158000286 0.6091446780909088 -7.198999999996577 0 0 0 0
-0.7612993483269467 0.648400572360147 -7.148499999996515 0 0 0 0
-0.7272553972129435 0.686366947940126 -7.097499999996453 0 0 0 0
-0.6913202647776511 0.7225484700058249 -7.04649999999639 0 0 0 0
-0.6535873980432573 0.7568510508145211 -6.995499999996328 0 0 0 0
-0.614154918925447 0.7891854886905091 -6.944499999996266 0 0 0 0
-0.5731253690736128 0.8194676999883737 -6.893499999996203 0 0 0 0
-0.530605443217829 0.8476189377471526 -6.842499999996141 0 0 0 0
-0.4871424338578263 0.8733225344253253 -6.791999999996079 0 0 0 0
-0.44198889851271694 0.8970205201618942 -6.740999999996017 0 0 0 0
-0.36284084316447834 0.9318511268071152 -6.654499999995911 0 0 0 0
-0.28097961427077733 0.9597137366758096 -6.567999999995806 0 0 0 0
-0.19701733619638057 0.9804000047113843 -6.4814999999957 0 0 0 0
-0.11108495253081296 0.993810914269524 -6.394499999995594 0 0 0 0
-0.024812146207963275 0.9996921313087118 -6.307999999995488 0 0 0 0
0.062145236373402586 0.9980671167792745 -6.220999999995382 0 0 0 0
0.1486325382762904 0.9888924959597717 -6.133999999995275 0 0 0 0
0.23350940184843408 0.9723545440056248 -6.0474999999951695 0 0 0 0
0.316640178827386 0.9485457274966563 -5.960999999995064 0 0 0 0
0.3978620240385418 0.9174452625786209 -5.8739999999949575 0 0 0 0
0.47607435056226477 0.8794050333815004 -5.786999999994851 0 0 0 0
0.5502681173913041 0.8349880232569985 -5.700499999994745 0 0 0 0
0.6207392932454879 0.7840170468944487 -5.613499999994639 0 0 0 0
0.686151412548956 0.7274587541964647 -5.526999999994533 0 0 0 0
0.7464327757763625 0.6654608262300604 -5.440499999994428 0 0 0 0
0.8014317671354129 0.5980862167164609 -5.353499999994321 0 0 0 0
0.850105346577925 0.5266126657417443 -5.266999999994216 0 0 0 0
0.8926476794308899 0.45075505588584075 -5.179999999994109 0 0 0 0
0.928251962590973 0.3719520048958024 -5.093499999994004 0 0 0 0
0.9570602262388439 0.2898891570094557 -5.006499999993897 0 0 0 0
0.9786290690276244 0.20563352171794666 -4.919499999993791 0 0 0 0
0.9927353040222824 0.12031881044868518 -4.832999999993685 0 0 0 0
0.9994352028544037 0.03360469156795012 -4.745999999993579 0 0 0 0
0.9986017038701653 -0.05286432660691549 -4.659499999993473 0 0 0 0
0.9903010749405642 -0.13893804724251388 -4.5729999999933675 0 0 0 0
0.9744832764877128 -0.22446011638099933 -4.485999999993261 0 0 0 0
0.9512942652676522 -0.3082843182337984 -4.398999999993155 0 0 0 0
0.9211042213984462 -0.38931608407817203 -4.312499999993049 0 0 0 0
0.8837927128139336 -0.4678786603137484 -4.225499999992943 0 0 0 0
0.8400673415400801 -0.5424821302842909 -4.138999999992837 0 0 0 0
0.7900602946213483 -0.6130291435672763 -4.052499999992731 0 0 0 0
0.7338059161994629 -0.6793591666789128 -3.965499999992625 0 0 0 0
0.6975032758710226 -0.7165815935043212 -3.9134999999925615 0 0 0 0
0.6589389958271453 -0.75219638378439 -3.8609999999924973 0 0 0 0
0.6185589322962676 -0.7857384089355066 -3.808499999992433 0 0 0 0
0.5768828428108649 -0.8168269006775273 -3.7564999999923696 0 0 0 0
0.5332242932989567 -0.8459739080112508 -3.7039999999923054 0 0 0 0
0.488532715706631 -0.8725455779982523 -3.651999999992242 0 0 0 0
0.4420720087832971 -0.8969795644552335 -3.5994999999921777 0 0 0 0
0.394393120725295 -0.9189418187918987 -3.5469999999921136 0 0 0 0
0.346096578973986 -0.9381988904398169 -3.49499999999205 0 0 0 0
0.2963869060211328 -0.9550679567126207 -3.442499999991986 0 0 0 0
0.24586050427680656 -0.969305221504947 -3.3899999999919217 0 0 0 0
0.1951470165253678 -0.9807740014607075 -3.337999999991858 0 0 0 0
0.14341115648320912 -0.9896631953327094 -3.285499999991794 0 0 0 0
0.09177801142032692 -0.9957794919658319 -3.2334999999917304 0 0 0 0
0.03939714765994628 -0.999223631003721 -3.1809999999916663 0 0 0 0
-0.012592320787646731 -0.9999207135854228 -3.1289999999916027 0 0 0 0
-0.06504669649227653 -0.9978822211440795 -3.0764999999915386 0 0 0 0
-0.11682526679713601 -0.9931524842831427 -3.024499999991475 0 0 0 0
-0.16878086063350345 -0.9856536009591879 -2.971999999991411 0 0 0 0
-0.2202713590640733 -0.9754386338340645 -2.9194999999913467 0 0 0 0
-0.2706735722569303 -0.9626711885590388 -2.867499999991283 0 0 0 0
-0.3208176595880139 -0.9471409764636252 -2.814999999991219 0 0 0 0
-0.3700776963282126 -0.9290008066091242 -2.762499999991155 0 0 0 0
-0.41786373807975435 -0.9085097117796894 -2.7104999999910913 0 0 0 0
-0.4649628540621453 -0.8853301894448106 -2.657999999991027 0 0 0 0
-0.5103507911601054 -0.8599663190859596 -2.6059999999909635 0 0 0 0
-0.5543590506481565 -0.8322776237316937 -2.5539999999909 0 0 0 0
-0.5972697558575935 -0.8020404221345772 -2.501499999990836 0 0 0 0
-0.6385346143849567 -0.7695931043299794 -2.4489999999907717 0 0 0 0
-0.6776723188043046 -0.7353640107636469 -2.396999999990708 0 0 0 0
-0.7153274942266841 -0.6987893645465515 -2.344499999990644 0 0 0 0
-0.7510115010582841 -0.6602891224896734 -2.29199999999058 0 0 0 0
-0.7843159250903033 -0.6203616120052414 -2.2399999999905162 0 0 0 0
-0.815789313263819 -0.5783491993290444 -2.187499999990452 0 0 0 0
-0.8447472213973902 -0.5351655182664412 -2.1354999999903885 0 0 0 0
-0.8716666063034629 -0.49009930366753607 -2.0829999999903244 0 0 0 0
-0.8959620586112589 -0.4441305996315444 -2.030999999990261 0 0 0 0
-0.9180337412550688 -0.39650226975040315 -1.9784999999901967 0 0 0 0
-0.9374016666759787 -0.34825007582640577 -1.926499999990133 0 0 0 0
-0.9543848380260753 -0.2985792707907601 -1.873999999990069 0 0 0 0
-0.9687380903091479 -0.24808569564605137 -1.8214999999900048 0 0 0 0
-0.9803232946651563 -0.19739867764717417 -1.7694999999899412 0 0 0 0
-0.9893312674374529 -0.14568336648568705 -1.716999999989877 0 0 0 0
-0.9955661144148207 -0.09406440256003479 -1.6649999999898135 0 0 0 0
-0.9991305278472209 -0.041691585766598954 -1.6124999999897494 0 0 0 0
-0.999941720229855 0.010796117068581652 -1.5599999999896852 0 0 0 0
-0.9980289585111903 0.06275506332614728 -1.5079999999896216 0 0 0 0
-0.9933607381803317 0.11504105285430316 -1.4554999999895575 0 0 0 0
-0.986038577898871 0.1665170348498084 -1.403499999989494 0 0 0 0
-0.9759418766133081 0.21803085440481698 -1.3509999999894298 0 0 0 0
-0.9631558533191088 0.2689438644348286 -1.2984999999893656 0 0 0 0
-0.9478751808121737 0.3186418704443737 -1.246499999989302 0 0 0 0
-0.9298481758280448 0.3679434330291241 -1.193999999989238 0 0 0 0
-0.9094668672961199 0.41577640299875346 -1.1419999999891743 0 0 0 0
-0.8866269144444512 0.46248536688495556 -1.0899999999891108 0 0 0 0
-0.8611359829011631 0.5083746836269956 -1.0374999999890466 0 0 0 0
-0.8332720904195848 0.5528631144576162 -0.9849999999889825 0 0 0 0
-0.8034098328467608 0.595426435829935 -0.9329999999889189 0 0 0 0
-0.7713756445604765 0.6363800868811889 -0.8809999999888554 0 0 0 0
-0.7369182276692596 0.6759818974860179 -0.8284999999887912 0 0 0 0
-0.7007869193073472 0.7133706566208886 -0.7764999999887277 0 0 0 0
-0.6623866117899468 0.7491621830561352 -0.7239999999886635 0 0 0 0
-0.6221610204764514 0.7828893054574833 -0.6714999999885993 0 0 0 0
-0.5802209916893952 0.8144590847936898 -0.6189999999885352 0 0 0 0
-0.5119901154992483 0.8589913396717491 -0.5374999999884356 0 0 0 0
-0.44080921043736987 0.897600824416724 -0.45649999998833657 0 0 0 0
-0.3667377370826101 0.9303243693462654 -0.3754999999882376 0 0 0 0
-0.28978290275952273 0.9570924037250871 -0.29399999998813797 0 0 0 0
-0.2113930501085984 0.9774011348293922 -0.21299999998803898 0 0 0 0
-0.13112133905217394 0.9913663270684379 -0.13149999998793938 0 0 0 0
-0.049979169258533296 0.998750260395574 -0.04999999998783977 0 0 0 0
0.031494790958194664 0.9995039160215929 0.03150000001225983 0 0 0 0
0.11275967066854181 0.9936222907477076 0.11300000001235944 0 0 0 0
0.1927853905853456 0.9812409455260496 0.19400000001245843 0 0 0 0
0.2720281156035945 0.9622893038588538 0.27550000001255803 0 0 0 0
0.34899644341436087 0.9371240486104958 0.356500000012657 0 0 0 0
0.42412911107880125 0.9056017320740425 0.43800000001275663 0 0 0 0
0.4964461661731216 0.8680675112524425 0.5195000000128562 0 0 0 0
0.5654675265618615 0.8247705598552911 0.6010000000129558 0 0 0 0
0.6303469108437127 0.7763135783881333 0.6820000000130548 0 0 0 0
0.6914541463385496 0.7224203509808037 0.7635000000131544 0 0 0 0
0.747971112183797 0.663731282476978 0.845000000013254 0 0 0 0
0.7992221983885679 0.601035670824074 0.926000000013353 0 0 0 0
0.8454995478586801 0.533976136705347 1.0075000000134526 0 0 0 0
0.8861639858525523 0.46337176238730554 1.0890000000135522 0 0 0 0
0.9207505977414617 0.3901516842956608 1.1700000000136512 0 0 0 0
0.9492994671774804 0.31437322025985603 1.2510000000137502 0 0 0 0
0.9717415325997666 0.23604743976721476 1.3325000000138498 0 0 0 0
0.9877326197641909 0.15615464083327213 1.4140000000139494 0 0 0 0
0.9971665706522306 0.07522519773101388 1.495500000014049 0 0 0 0
0.9999807572810084 -0.006203633427354149 1.5770000000141486 0 0 0 0
0.9962001685830725 -0.0870931921280767 1.6580000000142476 0 0 0 0
0.9858870833934862 -0.16741164474995518 1.7390000000143466 0 0 0 0
0.9689856915884016 -0.2471168336980445 1.8205000000144462 0 0 0 0
0.9458140889268476 -0.32470865277580335 1.9015000000145452 0 0 0 0
0.9162401919773246 -0.4006293930871214 1.9830000000146448 0 0 0 0
0.8891995555845581 -0.45751956280384815 2.046000000014722 0 0 0 0
0.8588870431744912 -0.5121650584206031 2.108500000014798 0 0 0 0
0.8252205952411726 -0.5648105604446545 2.1710000000148746 0 0 0 0
0.7883316785433139 -0.615250489317222 2.233500000014951 0 0 0 0
0.7483643435111902 -0.6632878781954825 2.2960000000150274 0 0 0 0
0.7054746617327936 -0.7087351421038754 2.3585000000151037 0 0 0 0
0.6594543266292877 -0.7517446315670719 2.4215000000151807 0 0 0 0
0.6112132922333595 -0.7914659256071974 2.484000000015257 0 0 0 0
0.5601713646743348 -0.8283767513631062 2.547000000015334 0 0 0 0
0.5073377892720049 -0.861747275932216 2.6095000000154105 0 0 0 0
0.4525230706596922 -0.8917526958303649 2.672000000015487 0 0 0 0
0.39594125914053263 -0.9182758405349721 2.7345000000155633 0 0 0 0
0.33781330547764693 -0.9412131377335667 2.7970000000156396 0 0 0 0
0.277885925801489 -0.9606140808053197 2.8600000000157166 0 0 0 0
0.21734405630780868 -0.9760950574547891 2.922500000015793 0 0 0 0
0.15595346292545015 -0.987764403793516 2.9850000000158694 0 0 0 0
0.09395387460780127 -0.995576551273774 3.047500000015946 0 0 0 0
0.031587398420439596 -0.999500993626834 3.110000000016022 0 0 0 0
-0.03090242588177761 -0.9995224059892911 3.1725000000160986 0 0 0 0
-0.09376938554492861 -0.9955939445047497 3.2355000000161755 0 0 0 0
-0.15577042044484052 -0.9877932861254107 3.298000000016252 0 0 0 0
-0.21765121567875118 -0.9760266125027338 3.361000000016329 0 0 0 0
-0.2781882104220313 -0.960526584526523 3.4235000000164053 0 0 0 0
-0.3376388861568935 -0.9412757207931862 3.4860000000164817 0 0 0 0
-0.39577108926684906 -0.9183491955136303 3.548500000016558 0 0 0 0
-0.4523578147427935 -0.8918365362784396 3.6110000000166345 0 0 0 0
-0.5076089498547226 -0.8615875776886444 3.6740000000167115 0 0 0 0
-0.560432021175562 -0.8282004284236241 3.736500000016788 0 0 0 0
-0.611066617447062 -0.7915791742092549 3.799000000016864 0 0 0 0
-0.6596908626344637 -0.7515370687841 3.862000000016941 0 0 0 0
-0.7053433159334985 -0.7088658594317664 3.9245000000170176 0 0 0 0
-0.7482414186782932 -0.6634265440682149 3.987000000017094 0 0 0 0
-0.7882176546956567 -0.6153965622475304 4.04950000001717 0 0 0 0
-0.8251159176394403 -0.5649634700208718 4.112000000017247 0 0 0 0
-0.8587921205824782 -0.5123242075341066 4.174500000017323 0 0 0 0
-0.8893434896890681 -0.45723971540940156 4.2375000000174 0 0 0 0
-0.9161659367564595 -0.4007991720639639 4.3000000000174765 0 0 0 0
-0.9394107754469411 -0.3427935165287945 4.362500000017553 0 0 0 0
-0.9589872351628702 -0.283449259647426 4.425000000017629 0 0 0 0
-0.9749302474607308 -0.22251070218341928 4.488000000017706 0 0 0 0
-0.9869245732554317 -0.16118277421791719 4.550500000017783 0 0 0 0
-0.9950649797119423 -0.09922543096843592 4.613000000017859 0 0 0 0
-0.9993196787172562 -0.03688061453446585 4.675500000017935 0 0 0 0
-0.9996591266943831 0.026108052716037278 4.738500000018012 0 0 0 0
-0.9960766117831207 0.08849510415078474 4.801000000018089 0 0 0 0
-0.9886044390190728 0.15053658409763532 4.863500000018165 0 0 0 0
-0.9771656698114699 0.21247883127949801 4.926500000018242 0 0 0 0
-0.961986481439248 0.2730970697904598 4.989000000018319 0 0 0 0
-0.9430507564436982 0.33264887008821864 5.051500000018395 0 0 0 0
-0.9204324384257 0.3909016836670316 5.114000000018471 0 0 0 0
-0.8942198514330773 0.44762803453649463 5.176500000018548 0 0 0 0
-0.8642639437993803 0.5030386023441358 5.239500000018625 0 0 0 0
-0.8311570297459804 0.5560377612211598 5.302000000018701 0 0 0 0
-0.7948044652783397 0.6068656045399282 5.3645000000187775 0 0 0 0
-0.755020450152551 0.6557012428320075 5.4275000000188545 0 0 0 0
-0.7125916284666801 0.7015790554450759 5.490000000018931 0 0 0 0
-0.6673801517212423 0.7447172168605555 5.552500000019007 0 0 0 0
-0.6191700186996866 0.785256956634852 5.615500000019084 0 0 0 0
-0.5689144820208968 0.8223966878258294 5.678000000019161 0 0 0 0
-0.5164373464646927 0.8563249775502914 5.740500000019237 0 0 0 0
-0.46194353412240075 0.8869093365629355 5.803000000019313 0 0 0 0
-0.405188776311554 0.9142330422551711 5.86600000001939 0 0 0 0
-0.3472952773930722 0.9377558265883871 5.928500000019467 0 0 0 0
-0.28804559784855494 0.957616694486927 5.991000000019543 0 0 0 0
-0.2271842089252238 0.9738518035178763 6.05400000001962 0 0 0 0
-0.16591451486081557 0.9861401390058617 6.116500000019698 0 0 0 0
-0.10399692816648128 0.9945776183546138 6.179000000019773 0 0 0 0
-0.04167323569321079 0.99913129338784 6.2415000000198475 0 0 0 0
0.020813189873630115 0.9997833821019853 6.304000000019926 0 0 0 0
0.08321834037942069 0.9965313381045751 6.366500000020004 0 0 0 0
0.14529852504691426 0.9893878605578256 6.429000000020078 0 0 0 0
0.20730048663401457 0.9782773166343481 6.492000000020155 0 0 0 0
0.2679982685097283 0.963419393657709 6.554500000020234 0 0 0 0
0.3276495228821216 0.9447993385661942 6.617000000020308 0 0 0 0
0.3864825095386808 0.922296736316834 6.680000000020385 0 0 0 0
0.4433339315728808 0.89635652790401 6.742500000020463 0 0 0 0
0.4988875398001028 0.8666667310057545 6.805500000020537 0 0 0 0
0.5520448800321595 0.8338143980708649 6.868000000020615 0 0 0 0
0.6030464968215551 0.7977060377552938 6.930500000020693 0 0 0 0
0.6516932299461685 0.7584826524333502 6.993000000020768 0 0 0 0
0.6977951149542004 0.7162974085853265 7.055500000020842 0 0 0 0
0.7411721249712859 0.6713150386856744 7.1180000000209205 0 0 0 0
0.7816548737015818 0.6237111979262231 7.180500000020999 0 0 0 0
0.8193720103691661 0.5732621639560657 7.243500000021072 0 0 0 0
0.8535777589918654 0.5209654588880389 7.30600000002115 0 0 0 0
0.8844503047324264 0.46663439485181346 7.368500000021228 0 0 0 0
0.9120742175349678 0.4100251476531364 7.431500000021302 0 0 0 0
0.935903293405179 0.3522570444907235 7.49400000002138 0 0 0 0
0.9560776869431499 0.29311338510794144 7.556500000021458 0 0 0 0
0.9725186175738496 0.23282512422899806 7.619000000021533 0 0 0 0
0.9851618838150058 0.1716276862224421 7.681500000021607 0 0 0 0
0.9940128697583541 0.10926305301775725 7.744500000021688 0 0 0 0
0.9988965660230557 0.04696435230413754 7.8070000000217625 0 0 0 0
0.9998717087177892 -0.016017681035924523 7.8700000000218395 0 0 0 0
0.9969190164743172 -0.07843771154157876 7.932500000021918 0 0 0 0
0.9900733768057686 -0.14055144446224144 7.995000000021992 0 0 0 0
0.9792603412090733 -0.2026059824760594 8.05800000002207 0 0 0 0
0.9646937144147849 -0.2633743293652696 8.120500000022147 0 0 0 0
0.9463599793103352 -0.32311420513456535 8.183000000022222 0 0 0 0
0.924330728738961 -0.3815923268475157 8.245500000022297 0 0 0 0
0.8984725839560069 -0.43902962984224214 8.308500000022377 0 0 0 0
0.8692968346570025 -0.49429041388167344 8.371000000022452 0 0 0 0
0.8364525847401598 -0.548039299212662 8.434000000022529 0 0 0 0
0.8005892592388945 -0.5992135161954528 8.496500000022607 0 0 0 0
0.7615996498130646 -0.6480478172207799 8.559000000022682 0 0 0 0
0.7196360100530912 -0.6943515053882056 8.621500000022756 0 0 0 0
0.6744931508489092 -0.7382811046328565 8.684500000022837 0 0 0 0
0.627063676017675 -0.7789680007671691 8.747000000022911 0 0 0 0
0.5767771522979297 -0.8169015342053721 8.810000000022988 0 0 0 0
0.5246278885087128 -0.8513316501804039 8.872500000023066 0 0 0 0
0.47042996404200826 -0.8824373342801374 8.935000000023141 0 0 0 0
0.41439502063300976 -0.9100971194738325 8.997500000023216 0 0 0 0
0.3562747274658488 -0.9343812490461991 9.060500000023296 0 0 0 0
0.29721828945243867 -0.9548095560974275 9.12300000002337 0 0 0 0
0.2370012203792443 -0.9715093522652002 9.185500000023445 0 0 0 0
0.17585866661233637 -0.9844154252028617 9.248000000023524 0 0 0 0
0.11353263559425536 -0.9935342674789944 9.3110000000236 0 0 0 0
0.051255491738226626 -0.9986855734247254 9.373500000023675 0 0 0 0
-0.011221803716166226 -0.9999370335782928 9.436000000023753 0 0 0 0
-0.07365527826719616 -0.9972837610145779 9.498500000023832 0 0 0 0
-0.13580113053282603 -0.9907361167061622 9.561000000023906 0 0 0 0
-0.19741668228989503 -0.9803196690639491 9.62350000002398 0 0 0 0
-0.25874433137163694 -0.9659458426759984 9.686500000024061 0 0 0 0
-0.3185714542395205 -0.9478988493208107 9.749000000024136 0 0 0 0
-0.3771545623960881 -0.92615033124424 9.81150000002421 0 0 0 0
-0.4347152283637786 -0.9005679709098185 9.874500000024291 0 0 0 0
-0.4901153126656832 -0.871657604963451 9.937000000024366 0 0 0 0
-0.5436015071601886 -0.8393434347233386 9.99950000002444 0 0 0 0