# .PCD v0.7 - Point Cloud Data file format
VERSION 0.7
FIELDS x y z normal_x normal_y normal_z curvature
SIZE 4 4 4 4 4 4 4
TYPE F F F F F F F
COUNT 1 1 1 1 1 1 1
WIDTH 321
HEIGHT 1
VIEWPOINT 0 0 0 1 0 0 0
POINTS 321
DATA ascii
1.2720105554446848 0.5804642354617737 1.0 0 0 -1 0
1.25026983249473 0.5671431981092825 1.0051000000000063 0 0 -1 0
1.2278782987920325 0.5549477772893958 1.0102000000000124 0 0 -1 0
1.2048941820932453 0.5439096864168895 1.0153000000000185 0 0 -1 0
1.1813772511293452 0.5340576293437541 1.0204000000000248 0 0 -1 0
1.1573886601808547 0.5254172257166561 1.0255000000000312 0 0 -1 0
1.133231767943967 0.5180774999955646 1.0305500000000372 0 0 -1 0
1.1084911432801123 0.5119122293790038 1.0356500000000435 0 0 -1 0
1.083468394310982 0.5070161999100311 1.0407500000000498 0 0 -1 0
1.058476882740254 0.503431319770384 1.0458000000000558 0 0 -1 0
1.0330868243057565 0.5010959390249865 1.0509000000000621 0 0 -1 0
1.007610725692874 0.5000579265010516 1.0560000000000684 0 0 -1 0
0.9821148358727663 0.5003199814840082 1.0611000000000748 0 0 -1 0
0.9569145199775494 0.5018598175099352 1.0661500000000808 0 0 -1 0
0.9315764028933222 0.5047039154616877 1.071250000000087 0 0 -1 0
0.9064162170135653 0.5088359993220717 1.0763500000000934 0 0 -1 0
0.8814993897985056 0.5142453238702962 1.0814500000000995 0 0 -1 0
0.8568907158696687 0.5209178225025438 1.0865500000001056 0 0 -1 0
0.832889791352099 0.5287525298045039 1.091600000000112 0 0 -1 0
0.8090838673167838 0.5378841808796364 1.0967000000001181 0 0 -1 0
0.7857744085197426 0.548217534697357 1.1018000000001242 0 0 -1 0
0.7630220297233479 0.5597257200294818 1.1069000000001306 0 0 -1 0
0.7408858970389267 0.572378810573332 1.1120000000001369 0 0 -1 0
0.7194235740690578 0.5861439027731759 1.1171000000001432 0 0 -1 0
0.6986908722170908 0.6009852013838302 1.1222000000001493 0 0 -1 0
0.6787417055531484 0.6168641125539138 1.1273000000001554 0 0 -1 0
0.6596279506140215 0.6337393441866995 1.1324000000001617 0 0 -1 0
0.6413993115015417 0.6515670133175797 1.137500000000168 0 0 -1 0
0.6242680872303483 0.6701128530444709 1.142550000000174 0 0 -1 0
0.6079396685463087 0.6896958000599707 1.1476500000001804 0 0 -1 0
0.5926307777729662 0.7100856733754927 1.1527500000001867 0 0 -1 0
0.578381224705327 0.731229450424679 1.157850000000193 0 0 -1 0
0.5652280643981925 0.7530721481625499 1.162950000000199 0 0 -1 0
0.5532055008068499 0.7755569660454078 1.1680500000002052 0 0 -1 0
0.5423447978418665 0.7986254337370332 1.1731500000002115 0 0 -1 0
0.532674198069282 0.8222175631570676 1.1782500000002178 0 0 -1 0
0.5242957727348165 0.8460341331267389 1.1833000000002238 0 0 -1 0
0.5170654363020537 0.8704847221912632 1.1884000000002302 0 0 -1 0
0.511090940430627 0.8952721074832916 1.1935000000002365 0 0 -1 0
0.5063878214163677 0.9203318309867718 1.1986000000002428 0 0 -1 0
0.5029955721851829 0.945350217452709 1.2036500000002488 0 0 -1 0
0.5008558555161002 0.9707575133164804 1.2087500000002551 0 0 -1 0
0.5000141313903477 0.9962408524036034 1.2138500000002614 0 0 -1 0
0.5004725886578812 1.021733966914526 1.2189500000002675 0 0 -1 0
0.5022300351297887 1.0471705636293294 1.2240500000002736 0 0 -1 0
0.5052819006785005 1.0724844962990223 1.22915000000028 0 0 -1 0
0.5096202491221157 1.0976099376546473 1.2342500000002863 0 0 -1 0
0.5152337988619369 1.1224815505868984 1.2393500000002926 0 0 -1 0
0.5220344946300914 1.1467956936578452 1.2444000000002986 0 0 -1 0
0.5301392894169856 1.1709705022816066 1.249500000000305 0 0 -1 0
0.5394659270432287 1.1947007130080607 1.2546000000003112 0 0 -1 0
0.5499901541819467 1.2179246169362514 1.2597000000003173 0 0 -1 0
0.561684603251047 1.2405818217837914 1.2648000000003234 0 0 -1 0
0.5745188635808707 1.262613408933143 1.2699000000003298 0 0 -1 0
0.5884595604952017 1.2839620866457306 1.275000000000336 0 0 -1 0
0.6034704420999857 1.3045723390454544 1.2801000000003424 0 0 -1 0
0.6193503258365267 1.3242002861800735 1.2851500000003484 0 0 -1 0
0.6363723013935283 1.343183473970063 1.2902500000003547 0 0 -1 0
0.6543398676111745 1.3612742350029126 1.295350000000361 0 0 -1 0
0.6732063009783713 1.3784255254072606 1.3004500000003671 0 0 -1 0
0.6929225405372765 1.3945927443452546 1.3055500000003732 0 0 -1 0
0.7134373154631937 1.4097338499941867 1.3106500000003796 0 0 -1 0
0.7346972783910855 1.4238094688735763 1.3157500000003859 0 0 -1 0
0.7564287830710869 1.4366612672126626 1.3208000000003919 0 0 -1 0
0.7790055507436415 1.4485102600809472 1.3259000000003982 0 0 -1 0
0.8185795784177609 1.4659255634035575 1.3345500000004087 0 0 -1 0
0.8595101928646114 1.4798568683379048 1.3432000000004194 0 0 -1 0
0.9014913319018097 1.4902000023556923 1.35185000000043 0 0 -1 0
0.9444575237345936 1.496905457134762 1.3605500000004405 0 0 -1 0
0.9875939268960183 1.499846065654356 1.3692000000004512 0 0 -1 0
1.0310726181867014 1.4990335583896373 1.3779000000004618 0 0 -1 0
1.0743162691381452 1.494446247979886 1.3866000000004726 0 0 -1 0
1.1167547009242171 1.4861772720028124 1.395250000000483 0 0 -1 0
1.158320089413693 1.4742728637483282 1.4039000000004935 0 0 -1 0
1.1989310120192709 1.4587226312893105 1.4126000000005043 0 0 -1 0
1.2380371752811323 1.4397025166907502 1.4213000000005147 0 0 -1 0
1.275134058695652 1.4174940116284993 1.4299500000005254 0 0 -1 0
1.310369646622744 1.3920085234472244 1.438650000000536 0 0 -1 0
1.343075706274478 1.3637293770982324 1.4473000000005465 0 0 -1 0
1.3732163878881813 1.3327304131150302 1.4559500000005572 0 0 -1 0
1.4007158835677065 1.2990431083582306 1.4646500000005678 0 0 -1 0
1.4250526732889626 1.2633063328708722 1.4733000000005783 0 0 -1 0
1.446323839715445 1.2253775279429204 1.482000000000589 0 0 -1 0
1.4641259812954865 1.1859760024479011 1.4906500000005996 0 0 -1 0
1.478530113119422 1.1449445785047279 1.4993500000006104 0 0 -1 0
1.4893145345138121 1.1028167608589734 1.508050000000621 0 0 -1 0
1.4963676520111413 1.0601594052243426 1.5167000000006314 0 0 -1 0
1.4997176014272018 1.016802345783975 1.525400000000642 0 0 -1 0
1.4993008519350828 0.9735678366965422 1.5340500000006527 0 0 -1 0
1.495150537470282 0.930530976378743 1.5427000000006632 0 0 -1 0
1.4872416382438565 0.8877699418095003 1.5514000000006738 0 0 -1 0
1.475647132633826 0.8458578408831008 1.5601000000006846 0 0 -1 0
1.460552110699223 0.805341957960914 1.568750000000695 0 0 -1 0
1.441896356406967 0.7660606698431258 1.5774500000007057 0 0 -1 0
1.42003367077004 0.7287589348578545 1.5861000000007164 0 0 -1 0
1.395030147310674 0.6934854282163618 1.5947500000007269 0 0 -1 0
1.3669029580997314 0.6603204166605436 1.6034500000007375 0 0 -1 0
1.3487516379355113 0.6417092032478394 1.6086500000007438 0 0 -1 0
1.3294694979135726 0.6239018081078049 1.6139000000007502 0 0 -1 0
1.3092794661481337 0.6071307955322467 1.6191500000007566 0 0 -1 0
1.2884414214054325 0.5915865496612364 1.6243500000007631 0 0 -1 0
1.2666121466494784 0.5770130459943745 1.6296000000007695 0 0 -1 0
1.2442663578533155 0.5637272110008739 1.6348000000007759 0 0 -1 0
1.2210360043916486 0.5515102177723832 1.6400500000007823 0 0 -1 0
1.1971965603626475 0.5405290906040506 1.6453000000007887 0 0 -1 0
1.173048289486993 0.5309005547800916 1.650500000000795 0 0 -1 0
1.1481934530105664 0.5224660216436896 1.6557500000008014 0 0 -1 0
1.1229302521384033 0.5153473892475264 1.6610000000008078 0 0 -1 0
1.0975735082626839 0.5096129992696463 1.6662000000008141 0 0 -1 0
1.0717055782416045 0.5051684023336453 1.6714500000008206 0 0 -1 0
1.0458890057101635 0.5021102540170841 1.6766500000008269 0 0 -1 0
1.019698573829973 0.5003881844981395 1.6819000000008333 0 0 -1 0
0.9937038396061766 0.5000396432072887 1.6871000000008398 0 0 -1 0
0.9674766517538618 0.5010588894279602 1.6923500000008462 0 0 -1 0
0.941587366601432 0.5034237578584286 1.6975500000008525 0 0 -1 0
0.9156095696832482 0.5071731995204061 1.702800000000859 0 0 -1 0
0.8898643204679634 0.5122806830829678 1.7080500000008654 0 0 -1 0
0.8646632138715349 0.5186644057204806 1.7132500000008717 0 0 -1 0
0.839591170205993 0.5264295117681874 1.718500000000878 0 0 -1 0
0.8149611518358937 0.5354995966954379 1.7237500000008845 0 0 -1 0
0.7910681309601229 0.5457451441101553 1.7289500000008908 0 0 -1 0
0.7675185729689273 0.5573349052775947 1.7342000000008972 0 0 -1 0
0.7448246044199474 0.5700168404570203 1.7394000000009036 0 0 -1 0
0.7228204746759217 0.5838611881341531 1.74460000000091 0 0 -1 0
0.7013651220712033 0.5989797889327114 1.7498500000009165 0 0 -1 0
0.6807326928075217 0.6152034478350104 1.755100000000923 0 0 -1 0
0.6611638405978477 0.6323179946181765 1.7603000000009292 0 0 -1 0
0.642336252886658 0.6506053177267243 1.7655500000009356 0 0 -1 0
0.624494249470858 0.6698554387551633 1.770800000000942 0 0 -1 0
0.6078420374548483 0.6898191939973792 1.7760000000009484 0 0 -1 0
0.5921053433680905 0.7108254003354778 1.7812500000009548 0 0 -1 0
0.5776263893013049 0.7324172408667794 1.786450000000961 0 0 -1 0
0.5641666968482686 0.754950348166232 1.7917000000009675 0 0 -1 0
0.5520189706943706 0.7779347001842278 1.7969000000009738 0 0 -1 0
0.5409831293724656 0.8017488651247984 1.8021500000009802 0 0 -1 0
0.5312991666620106 0.8258749620867971 1.8073500000009868 0 0 -1 0
0.5228075809869623 0.8507103646046199 1.8126000000009932 0 0 -1 0
0.5156309548454261 0.8759571521769743 1.8178500000009996 0 0 -1 0
0.5098383526674218 0.9013006611764129 1.823050000001006 0 0 -1 0
0.5053343662812735 0.9271583167571564 1.8283000000010123 0 0 -1 0
0.5022169427925897 0.9529677987199826 1.8335000000010186 0 0 -1 0
0.5004347360763896 0.9791542071167005 1.838750000001025 0 0 -1 0
0.5000291398850725 1.0053980585342908 1.8440000000010315 0 0 -1 0
0.5009855207444048 1.0313775316630736 1.8492000000010378 0 0 -1 0
0.5033196309098342 1.0575205264271517 1.8544500000010442 0 0 -1 0
0.5069807110505645 1.083258517424904 1.8596500000010505 0 0 -1 0
0.5120290616933459 1.1090154272024084 1.864900000001057 0 0 -1 0
0.5184220733404457 1.1344719322174144 1.8701500000010634 0 0 -1 0
0.5260624095939131 1.159320935222187 1.8753500000010699 0 0 -1 0
0.5350759120859776 1.183971716514562 1.8806000000010763 0 0 -1 0
0.54526656635194 1.2078882014993768 1.8858000000010826 0 0 -1 0
0.5566865427777744 1.2312426834424777 1.891000000001089 0 0 -1 0
0.5694320085494184 1.254187341813498 1.8962500000010953 0 0 -1 0
0.5833639547902076 1.276431557228808 1.9015000000011018 0 0 -1 0
0.5982950835766196 1.2977132179149675 1.906700000001108 0 0 -1 0
0.6143121777197618 1.3181900434405944 1.9119000000011144 0 0 -1 0
0.6315408861653702 1.337990948743009 1.9171500000011208 0 0 -1 0
0.6496065403463265 1.3566853283104443 1.9223500000011273 0 0 -1 0
0.6688066941050266 1.3745810915280676 1.9276000000011337 0 0 -1 0
0.6889194897617743 1.3914446527287416 1.9328500000011402 0 0 -1 0
0.7098895041553024 1.4072295423968448 1.9381000000011466 0 0 -1 0
0.7440049422503758 1.4294956698358745 1.9462500000011564 0 0 -1 0
0.779595394781315 1.448800412208362 1.9543500000011664 0 0 -1 0
0.8166311314586949 1.4651621846731326 1.9624500000011762 0 0 -1 0
0.8551085486202387 1.4785462018625435 1.9706000000011863 0 0 -1 0
0.8943034749457008 1.488700567414696 1.978700000001196 0 0 -1 0
0.934439330473913 1.495683163534219 1.9868500000012062 0 0 -1 0
0.9750104153707333 1.499375130197787 1.995000000001216 0 0 -1 0
1.0157473954790974 1.4997519580107965 2.003150000001226 0 0 -1 0
1.0563798353342708 1.4968111453738537 2.0113000000012358 0 0 -1 0
1.0963926952926728 1.4906204727630248 2.0194000000012458 0 0 -1 0
1.1360140578017972 1.481144651929427 2.0275500000012556 0 0 -1 0
1.1744982217071804 1.468562024305248 2.0356500000012656 0 0 -1 0
1.2120645555394005 1.4528008660370213 2.0438000000012755 0 0 -1 0
1.2482230830865608 1.4340337556262213 2.051950000001286 0 0 -1 0
1.2827337632809308 1.4123852799276455 2.0601000000012957 0 0 -1 0
1.3151734554218564 1.3881567891940667 2.0682000000013057 0 0 -1 0
1.3457270731692748 1.3612101754904018 2.0763500000013155 0 0 -1 0
1.3739855560918985 1.331865641238489 2.0845000000013254 0 0 -1 0
1.399611099194284 1.300517835412037 2.0926000000013354 0 0 -1 0
1.42274977392934 1.2669880683526735 2.1007500000013453 0 0 -1 0
1.4430819929262761 1.2316858811936529 2.108900000001355 0 0 -1 0
1.4603752988707308 1.1950758421478305 2.117000000001365 0 0 -1 0
1.4746497335887403 1.157186610129928 2.125100000001375 0 0 -1 0
1.4858707662998833 1.1180237198836074 2.133250000001385 0 0 -1 0
1.4938663098820955 1.078077320416636 2.141400000001395 0 0 -1 0
1.4985832853261152 1.037612598865507 2.1495500000014047 0 0 -1 0
1.4999903786405042 0.996898183286323 2.157700000001415 0 0 -1 0
1.4981000842915362 0.9564534039359617 2.1658000000014246 0 0 -1 0
1.4929435416967431 0.9162941776250224 2.1739000000014346 0 0 -1 0
1.4844928457942008 0.8764415831509778 2.1820500000014444 0 0 -1 0
1.4729070444634238 0.8376456736120983 2.1901500000014544 0 0 -1 0
1.4581200959886624 0.7996853034564393 2.1983000000014643 0 0 -1 0
1.444599777792279 0.7712402185980759 2.2046000000014723 0 0 -1 0
1.4294435215872456 0.7439174707896985 2.21085000000148 0 0 -1 0
1.4126102976205863 0.7175947197776728 2.2171000000014875 0 0 -1 0
1.394165839271657 0.692374755341389 2.223350000001495 0 0 -1 0
1.374182171755595 0.6683560609022587 2.229600000001503 0 0 -1 0
1.3527373308663968 0.6456324289480623 2.2358500000015105 0 0 -1 0
1.329727163314644 0.624127684216464 2.242150000001518 0 0 -1 0
1.3056066461166798 0.6042670371964013 2.2484000000015256 0 0 -1 0
1.2800856823371674 0.5858116243184469 2.2547000000015336 0 0 -1 0
1.2536688946360024 0.569126362033892 2.2609500000015412 0 0 -1 0
1.226261535329846 0.5541236520848176 2.267200000001549 0 0 -1 0
1.1979706295702663 0.5408620797325139 2.2734500000015565 0 0 -1 0
1.1689066527388234 0.5293934311332167 2.279700000001564 0 0 -1 0
1.1389429629007446 0.5196929595973401 2.2860000000015717 0 0 -1 0
1.1086720281539044 0.5119524712726055 2.2922500000015793 0 0 -1 0
1.077976731462725 0.506117798103242 2.298500000001587 0 0 -1 0
1.0469769373039006 0.502211724363113 2.3047500000015946 0 0 -1 0
1.01579369921022 0.500249503186583 2.311000000001602 0 0 -1 0
0.9845487870591112 0.5002387970053545 2.31725000000161 0 0 -1 0
0.9531153072275357 0.5022030277476252 2.3235500000016174 0 0 -1 0
0.9221147897775798 0.5061033569372946 2.329800000001625 0 0 -1 0
0.8911743921606244 0.511986693748633 2.336100000001633 0 0 -1 0
0.8609058947889844 0.5197367077367385 2.3423500000016406 0 0 -1 0
0.8311805569215532 0.529362139603407 2.3486000000016483 0 0 -1 0
0.8021144553665754 0.5408254022431849 2.354850000001656 0 0 -1 0
0.7738210926286032 0.5540817318607802 2.3611000000016635 0 0 -1 0
0.7461955250726386 0.5692062111556778 2.367400000001671 0 0 -1 0
0.719783989412219 0.585899785788188 2.3736500000016787 0 0 -1 0
0.694466691276469 0.6042104128953725 2.3799000000016863 0 0 -1 0
0.6701545686827681 0.62423146560795 2.3862000000016943 0 0 -1 0
0.6473283420332507 0.6455670702841168 2.392450000001702 0 0 -1 0
0.6258792906608535 0.6682867279658926 2.3987000000017096 0 0 -1 0
0.6058911726521716 0.6923017188762348 2.404950000001717 0 0 -1 0
0.5874420411802799 0.7175182649895642 2.411200000001725 0 0 -1 0
0.5706039397087609 0.7438378962329467 2.4174500000017325 0 0 -1 0
0.5553282551554659 0.7713801422952993 2.42375000000174 0 0 -1 0
0.5419170316217703 0.7996004139680181 2.4300000000017477 0 0 -1 0
0.5302946122765295 0.8286032417356027 2.4362500000017553 0 0 -1 0
0.520506382418565 0.858275370176287 2.442500000001763 0 0 -1 0
0.5125348762696347 0.8887446489082904 2.4488000000017704 0 0 -1 0
0.5065377133722841 0.9194086128910414 2.455050000001778 0 0 -1 0
0.5024675101440288 0.950387284515782 2.4613000000017857 0 0 -1 0
0.5003401606413719 0.9815596927327671 2.4675500000017934 0 0 -1 0
0.5001704366528085 1.0130540263580186 2.4738500000018013 0 0 -1 0
0.5019616941084397 1.0442475520753924 2.480100000001809 0 0 -1 0
0.5056977804904637 1.0752682920488177 2.4863500000018166 0 0 -1 0
0.511417165094265 1.106239415639749 2.492650000001824 0 0 -1 0
0.519006759280376 1.1365485348952298 2.4989000000018318 0 0 -1 0
0.5284746217781509 1.1663244350441093 2.5051500000018394 0 0 -1 0
0.53978378078715 1.195450841833516 2.511400000001847 0 0 -1 0
0.5528900742834614 1.2238140172682472 2.5176500000018547 0 0 -1 0
0.5678680281003099 1.2515193011720678 2.5239500000018626 0 0 -1 0
0.5844214851270098 1.2780188806105799 2.5302000000018703 0 0 -1 0
0.6025977673608301 1.3034328022699642 2.536450000001878 0 0 -1 0
0.6224897749237245 1.3278506214160037 2.5427500000018854 0 0 -1 0
0.6437041857666599 1.350789527722538 2.549000000001893 0 0 -1 0
0.6663099241393788 1.3723586084302777 2.5552500000019007 0 0 -1 0
0.6904149906501567 1.3926284783174259 2.5615500000019082 0 0 -1 0
0.7155427589895516 1.4111983439129148 2.567800000001916 0 0 -1 0
0.7417813267676536 1.4281624887751456 2.5740500000019235 0 0 -1 0
0.7690282329387996 1.4434546682814677 2.580300000001931 0 0 -1 0
0.797405611844223 1.4571165211275856 2.586600000001939 0 0 -1 0
0.8263523613034639 1.4688779132941936 2.5928500000019468 0 0 -1 0
0.8559772010757225 1.4788083472434634 2.5991000000019544 0 0 -1 0
0.8864078955373881 1.486925901758938 2.605400000001962 0 0 -1 0
0.9170427425695922 1.4930700695029309 2.61165000000197 0 0 -1 0
0.9480015359167594 1.497288809177307 2.617900000001977 0 0 -1 0
0.9791633821533946 1.49956564669392 2.624150000001985 0 0 -1 0
1.010406594936815 1.4998916910509927 2.6304000000019925 0 0 -1 0
1.0416091701897103 1.4982656690522875 2.6366500000020006 0 0 -1 0
1.0726492625234572 1.4946939302789128 2.6429000000020078 0 0 -1 0
1.1036502433170072 1.4891386583171742 2.6492000000020157 0 0 -1 0
1.133999134254864 1.4817096968288546 2.6554500000020234 0 0 -1 0
1.1638247614410608 1.4723996692830972 2.661700000002031 0 0 -1 0
1.1932412547693403 1.461148368158417 2.6680000000020385 0 0 -1 0
1.2216669657864405 1.448178263952005 2.674250000002046 0 0 -1 0
1.2494437699000513 1.4333333655028773 2.6805500000020537 0 0 -1 0
1.2760224400160798 1.4169071990354325 2.6868000000020613 0 0 -1 0
1.3015232484107775 1.398853018877647 2.6930500000020694 0 0 -1 0
1.3258466149730843 1.3792413262166752 2.6993000000020766 0 0 -1 0
1.3488975574771003 1.3581487042926632 2.7055500000020842 0 0 -1 0
1.370586062485643 1.3356575193428373 2.711800000002092 0 0 -1 0
1.390827436850791 1.3118555989631115 2.7180500000021 0 0 -1 0
1.409686005184583 1.2866310819780329 2.724350000002107 0 0 -1 0
1.4267888794959327 1.2604827294440195 2.730600000002115 0 0 -1 0
1.442225152366213 1.2333171974259067 2.7368500000021228 0 0 -1 0
1.456037108767484 1.2050125738265682 2.7431500000021303 0 0 -1 0
1.4679516467025895 1.1761285222453617 2.749400000002138 0 0 -1 0
1.478038843471575 1.1465566925539707 2.755650000002146 0 0 -1 0
1.486259308786925 1.1164125621144991 2.761900000002153 0 0 -1 0
1.492580941907503 1.085813843111221 2.768150000002161 0 0 -1 0
1.497006434879177 1.0546315265088786 2.774450000002169 0 0 -1 0
1.4994482830115279 1.0234821761520687 2.7807000000021764 0 0 -1 0
1.4999358543588945 0.9919911594820378 2.787000000002184 0 0 -1 0
1.4984595082371586 0.9607811442292106 2.7932500000021916 0 0 -1 0
1.4950366884028843 0.9297242777688792 2.7995000000021992 0 0 -1 0
1.4896301706045367 0.8986970087619703 2.8058000000022068 0 0 -1 0
1.4823468572073923 0.8683128353173653 2.812050000002215 0 0 -1 0
1.4731799896551676 0.8384428974327174 2.818300000002222 0 0 -1 0
1.4621653643694805 0.8092038365762422 2.8245500000022297 0 0 -1 0
1.4492362919780035 0.780485185078879 2.8308500000022376 0 0 -1 0
1.4346484173285012 0.7528547930591633 2.8371000000022453 0 0 -1 0
1.41822629237008 0.725980350393669 2.843400000002253 0 0 -1 0
1.4002946296194472 0.7003932419022736 2.849650000002261 0 0 -1 0
1.3807998249065323 0.67597609138961 2.855900000002268 0 0 -1 0
1.3598180050265456 0.6528242473058972 2.8621500000022757 0 0 -1 0
1.3372465754244547 0.6308594476835718 2.8684500000022837 0 0 -1 0
1.3135318380088374 0.6105159996164155 2.8747000000022913 0 0 -1 0
1.2883885761489648 0.591549232897314 2.881000000002299 0 0 -1 0
1.2623139442543563 0.5743341749097981 2.8872500000023065 0 0 -1 0
1.235214982021004 0.5587813328599314 2.893500000002314 0 0 -1 0
1.207197510316505 0.5449514402630837 2.8997500000023217 0 0 -1 0
1.1781373637329244 0.5328093754769004 2.9060500000023297 0 0 -1 0
1.1486091447262194 0.5225952219512863 2.912300000002337 0 0 -1 0
1.1185006101896222 0.5142453238673999 2.9185500000023445 0 0 -1 0
1.0879293333061681 0.5077922873985692 2.924800000002352 0 0 -1 0
1.0567663177971276 0.5032328662605028 2.93110000000236 0 0 -1 0
1.0256277458691132 0.5006572132876372 2.9373500000023673 0 0 -1 0
0.9943890981419169 0.5000314832108537 2.9436000000023754 0 0 -1 0
0.9631723608664019 0.501358119492711 2.949850000002383 0 0 -1 0
0.932099434733587 0.5046319416469189 2.9561000000023907 0 0 -1 0
0.9012916588550525 0.5098401654680255 2.962350000002398 0 0 -1 0
0.8706278343141816 0.5170270786620008 2.9686500000024063 0 0 -1 0
0.8407142728802397 0.5260505753395947 2.9749000000024135 0 0 -1 0
0.8114227188019559 0.5369248343778801 2.981150000002421 0 0 -1 0
0.7826423858181106 0.5497160145450908 2.987450000002429 0 0 -1 0
0.7549423436671584 0.5641711975182745 2.9937000000024367 0 0 -1 0
0.7281992464199056 0.5803282826383307 2.999950000002444 0 0 -1 0